ncols        396
nrows        59
xllcorner    -70.832917
yllcorner    -33.505457
cellsize     0.000833
NODATA_value -9999.000000
835 818 766 717 674 626 592 567 553 540 530 522 512 504 494 487 479 477 477 472 463 463 461 459 459 460 461 465 465 463 465 466 464 463 463 463 466 465 465 466 467 467 468 466 466 468 467 467 467 466 465 466 467 468 469 469 468 468 468 469 469 471 471 471 473 475 473 473 474 474 474 475 475 474 475 475 476 475 477 476 477 478 479 478 480 480 480 480 481 481 481 481 483 483 482 483 484 484 485 486 486 485 486 486 487 487 487 487 489 489 491 490 490 491 491 490 491 494 495 495 495 497 494 494 497 497 495 497 501 499 501 499 500 502 502 502 502 503 504 504 504 503 505 506 505 505 507 505 505 508 509 512 510 508 509 511 510 511 514 513 512 513 514 514 517 517 517 516 517 518 519 519 518 518 519 520 521 522 523 526 525 526 525 524 525 528 529 529 530 530 531 533 535 535 535 535 537 539 538 548 550 540 539 545 544 547 551 547 548 549 546 548 549 548 548 550 549 551 552 552 555 556 555 553 554 556 556 558 561 561 560 560 561 561 561 563 563 562 563 562 562 563 563 564 567 566 567 567 567 567 568 567 569 569 570 572 572 576 574 574 575 576 577 578 581 581 579 579 578 581 583 581 582 582 584 585 587 588 587 589 591 592 591 593 595 595 596 598 598 598 597 599 600 602 604 602 603 604 604 607 611 611 612 608 611 610 612 614 619 617 615 616 617 619 620 620 620 622 622 625 625 626 626 628 629 630 631 632 635 635 635 637 640 641 639 642 642 644 647 648 648 650 649 655 658 658 659 660 661 663 665 667 669 672 674 678 681 684 687 693 699 702 708 715 722 728 736 743 750 756 769 776 782 790 801 811 825 836 850 857 869 879 891 905 921 937 952 972 997 1026 1053 1081 1117 1153 1195 1236
865 815 767 718 672 634 600 575 562 549 537 529 520 511 504 496 489 487 484 480 471 467 464 460 459 460 461 463 465 464 464 463 462 462 464 464 465 465 465 466 466 467 467 467 468 468 469 468 468 468 468 467 468 469 470 469 470 471 470 471 470 470 471 473 475 471 470 471 472 475 476 476 477 473 474 476 474 475 477 477 478 478 478 479 480 480 481 481 480 480 481 481 482 482 483 483 484 485 484 485 486 486 484 480 481 487 486 488 488 488 489 491 491 489 491 492 493 494 494 496 498 497 495 498 497 499 498 499 500 497 499 501 500 503 502 503 502 504 504 504 503 501 503 503 505 506 505 507 507 508 508 509 509 511 511 513 512 512 516 512 512 514 513 513 514 517 517 516 516 518 518 520 520 519 519 520 520 521 523 524 524 524 524 525 524 527 529 530 529 530 532 532 533 533 534 536 540 539 539 544 545 542 546 549 547 547 550 548 547 548 545 548 550 549 547 548 549 550 550 549 553 554 555 555 554 555 554 556 558 558 559 560 560 561 560 561 561 562 562 561 563 563 563 563 565 565 564 564 565 566 565 568 568 568 569 569 570 571 573 572 573 574 576 575 576 577 576 578 577 582 584 582 582 584 585 585 587 588 588 588 588 591 590 592 592 593 595 597 596 599 599 598 600 600 602 601 602 602 603 606 610 612 609 607 609 610 611 611 616 615 614 615 616 618 618 619 620 621 623 625 624 625 624 627 627 628 629 631 632 633 635 636 638 643 641 642 642 644 646 647 648 648 647 654 654 656 657 659 660 662 664 666 669 673 676 679 684 685 689 694 699 703 708 715 723 729 736 743 752 758 768 777 787 797 807 818 830 843 850 861 875 887 899 909 922 936 950 964 982 1004 1034 1064 1104 1143 1174 1203
862 818 766 716 670 639 612 591 576 561 551 540 531 521 510 502 496 492 490 484 478 474 473 471 465 462 459 460 463 464 463 460 462 464 465 464 465 464 465 465 466 467 466 467 467 468 468 468 468 468 468 469 469 471 471 470 470 470 471 472 473 473 472 471 471 471 471 472 475 472 473 474 475 476 474 475 475 476 476 477 479 480 480 478 480 479 481 481 481 480 481 482 482 481 482 483 484 485 484 486 485 484 486 484 484 488 486 487 487 487 488 489 489 489 492 493 491 493 494 495 495 494 497 499 499 500 498 497 498 499 502 503 502 502 503 499 498 502 503 504 509 508 506 507 506 507 507 505 506 507 507 509 508 510 510 511 509 510 509 510 514 511 513 514 513 515 514 515 517 517 516 518 517 517 518 520 521 522 521 522 522 523 525 525 524 526 528 529 530 531 532 532 532 532 535 541 540 542 540 537 543 543 541 543 546 544 546 545 544 546 545 547 549 548 548 547 549 548 550 550 552 555 555 555 556 555 556 556 557 561 559 559 558 559 557 559 560 561 561 561 563 561 560 563 564 564 563 563 566 566 566 565 566 567 569 568 570 571 572 570 572 572 574 574 575 576 576 576 576 576 579 581 581 583 583 584 586 588 588 588 589 589 589 591 591 592 593 594 595 596 597 599 599 599 599 600 602 601 601 605 610 612 607 606 607 608 607 610 611 612 612 616 616 616 617 618 620 620 622 624 624 625 624 625 626 628 629 629 630 631 633 634 635 638 645 642 641 642 643 645 646 646 646 650 652 655 654 656 659 661 662 668 670 674 678 679 684 686 691 695 698 703 709 715 722 728 735 743 750 761 770 780 791 804 813 821 831 845 855 865 878 890 902 914 926 940 950 965 979 996 1020 1056 1089 1108 1127 1141
875 843 794 743 698 669 637 621 604 582 567 554 542 528 518 511 504 495 488 486 486 483 480 477 472 463 463 461 461 462 462 462 464 464 464 464 465 465 467 466 466 467 467 467 467 467 467 467 468 468 469 469 469 470 471 469 469 470 472 473 472 473 472 472 470 471 471 472 474 471 472 472 471 474 476 475 477 477 475 475 479 479 479 477 477 478 479 479 481 480 481 482 482 481 483 484 483 484 485 484 485 486 486 487 487 485 485 486 486 488 488 489 490 492 493 493 492 493 493 494 494 494 494 495 499 499 499 494 496 499 501 503 500 503 505 501 499 501 503 502 512 511 505 506 505 506 507 506 506 506 507 508 508 509 506 510 511 510 510 511 514 511 514 513 513 514 515 515 516 516 517 516 517 519 519 519 520 520 521 522 521 523 524 524 524 526 528 527 533 533 532 532 532 536 537 537 533 536 535 535 538 539 540 542 543 544 548 548 544 544 546 547 548 546 547 548 548 548 549 551 550 552 554 555 553 554 556 555 555 557 557 558 557 557 556 558 560 561 560 560 561 562 563 562 561 564 564 565 566 564 566 567 564 566 568 569 566 569 570 570 570 572 574 573 575 576 577 579 577 576 578 580 583 583 581 581 583 585 587 587 588 589 590 591 591 593 594 593 596 594 596 598 598 599 600 600 602 602 602 604 604 605 606 608 607 608 610 611 611 610 612 616 615 616 614 617 618 619 621 620 623 623 624 626 625 626 628 630 630 631 633 634 635 636 640 641 640 641 643 644 644 646 649 650 652 654 653 655 656 659 663 667 672 676 680 680 684 686 693 699 701 706 712 715 723 730 736 743 752 761 769 779 788 800 810 821 831 842 853 864 875 887 898 911 928 946 970 984 987 1000 1025 1049 1066 1077 1097 1118
895 868 815 774 736 706 681 662 626 599 588 581 563 541 532 523 515 499 494 491 490 488 488 487 479 469 466 464 460 460 461 461 462 463 464 464 465 464 465 465 465 466 466 467 467 468 467 467 468 468 469 470 469 469 469 470 471 471 472 471 471 470 472 474 471 472 470 471 474 471 472 474 475 474 476 477 477 476 476 475 476 476 482 478 477 477 480 479 482 482 481 481 484 483 483 484 484 483 484 485 487 486 486 487 487 486 487 488 487 487 488 489 489 490 489 491 492 493 491 491 494 496 495 495 493 495 499 497 498 501 501 500 499 498 500 502 503 505 501 500 507 507 502 504 505 504 505 506 507 506 505 507 507 509 508 510 511 510 512 513 512 512 514 515 515 515 513 515 516 516 516 517 519 518 519 518 518 519 522 522 521 523 524 524 522 526 527 529 529 531 531 532 531 534 537 539 536 530 533 533 542 537 540 540 539 543 545 540 540 544 546 545 546 547 547 547 547 549 549 551 549 549 551 552 553 552 552 553 555 557 558 557 558 558 555 557 557 558 557 559 561 561 561 561 563 564 563 562 565 563 564 567 566 565 566 567 566 567 569 569 568 572 573 573 573 575 576 578 578 576 576 578 582 581 581 582 582 584 584 586 587 590 591 592 592 593 595 594 594 594 595 595 598 600 600 600 601 600 602 603 604 605 609 609 605 606 609 610 610 611 613 614 615 616 616 617 617 618 618 619 619 622 623 624 626 627 627 629 630 630 630 633 635 635 636 640 643 641 642 645 643 643 648 647 649 651 653 655 656 659 662 667 672 677 678 682 686 690 695 702 706 710 716 720 723 731 740 746 752 758 767 775 785 794 805 814 825 834 847 862 875 892 907 920 941 969 1001 1014 1013 1009 1025 1042 1068 1103 1138 1160
914 892 852 812 777 750 722 694 650 626 630 623 596 573 559 551 525 507 498 496 494 494 498 493 491 476 469 466 463 462 470 463 462 461 464 463 463 462 463 463 462 464 465 465 465 466 466 466 467 468 468 469 469 471 470 470 471 470 470 472 473 473 472 473 471 472 470 474 473 472 473 474 475 474 476 475 476 477 476 476 476 477 481 479 476 478 476 477 480 480 481 482 482 482 482 484 485 484 484 484 485 486 486 486 485 486 489 489 488 486 487 490 489 489 489 491 492 494 493 493 495 495 494 496 495 494 497 497 498 502 502 499 498 500 500 504 505 505 505 503 503 504 504 504 504 504 506 506 507 506 506 507 507 509 509 509 511 510 513 513 514 513 514 513 515 515 515 516 516 516 516 517 516 517 519 517 519 521 522 520 521 524 524 523 523 525 527 526 529 530 532 530 530 533 534 534 533 531 533 536 541 537 540 540 541 545 546 542 541 540 543 547 547 548 546 546 547 546 545 548 549 550 550 550 551 551 553 553 556 559 558 554 554 556 555 557 556 556 559 559 558 560 560 559 562 562 564 562 561 563 567 566 567 564 566 565 566 567 569 569 569 569 569 570 573 573 575 576 576 576 578 578 577 580 580 581 583 582 584 589 587 590 589 592 593 591 591 593 593 593 595 596 597 597 597 598 599 600 601 602 600 602 605 606 606 606 608 609 609 610 613 613 614 615 615 617 616 616 616 617 621 623 622 622 625 626 626 626 628 629 631 630 631 633 636 638 642 641 640 641 643 642 644 647 649 650 656 655 657 660 664 667 672 675 678 681 686 691 695 700 705 709 715 729 728 735 738 745 752 759 768 773 783 794 802 810 820 830 846 865 884 910 933 941 959 988 1019 1043 1058 1044 1046 1069 1103 1135 1175 1200
917 924 900 864 830 797 755 707 679 672 680 673 644 621 598 564 530 517 510 503 501 496 495 498 497 488 487 477 470 472 476 463 459 460 461 463 462 463 462 462 463 464 463 464 464 465 466 466 466 467 466 466 467 468 469 469 469 471 470 470 472 473 473 473 471 472 474 478 472 471 472 473 474 473 474 476 477 476 477 477 477 479 482 486 479 479 479 477 480 481 481 482 483 483 482 484 484 484 486 484 485 487 486 486 487 487 487 487 487 487 487 489 489 489 490 490 491 492 493 494 495 495 494 496 495 497 496 499 499 501 501 500 500 500 500 501 505 503 503 501 501 502 503 505 505 505 505 508 509 508 508 510 508 508 509 511 512 512 514 512 512 513 513 511 513 514 515 516 515 515 515 516 519 518 520 519 521 519 520 521 521 522 523 524 523 525 525 527 528 528 530 532 532 534 536 530 532 532 532 536 541 537 539 540 540 534 541 547 543 541 546 546 546 545 543 545 546 545 545 548 548 549 550 550 551 552 551 553 553 554 555 556 553 554 555 555 554 556 556 557 557 557 560 561 561 562 563 562 562 561 563 564 566 565 567 567 565 567 568 567 568 567 568 570 572 574 574 573 575 575 577 578 576 579 578 580 582 582 583 585 587 589 589 591 591 591 591 592 593 594 595 595 597 597 597 598 598 599 599 600 600 602 601 602 603 606 607 606 607 610 611 611 611 613 614 614 615 615 616 618 620 621 621 621 624 623 626 625 627 628 629 629 630 634 635 636 641 640 641 641 643 645 647 648 648 647 654 657 659 660 665 670 671 676 680 683 688 690 695 700 706 713 722 728 729 733 739 748 754 764 770 781 787 796 804 812 818 826 848 872 900 926 944 951 968 992 1020 1051 1083 1098 1103 1120 1148 1169 1201 1234
900 940 943 914 874 830 775 745 733 728 733 724 693 664 619 582 545 526 520 515 508 501 496 500 502 513 514 499 474 465 462 459 458 458 460 463 463 463 463 462 463 464 465 463 465 465 465 467 467 468 466 466 467 468 469 468 468 470 470 470 472 473 474 477 475 478 479 477 473 472 472 474 474 474 474 476 475 475 476 477 478 479 480 484 481 479 479 478 480 482 482 482 483 484 484 483 485 485 486 485 486 486 486 485 488 488 487 488 487 487 489 490 491 491 493 491 492 492 493 493 495 495 495 495 495 494 497 497 497 500 499 498 500 502 503 501 502 502 502 502 500 503 505 505 505 504 504 507 508 508 506 507 508 508 507 509 510 509 510 510 512 511 511 514 514 514 513 512 515 516 517 517 516 517 519 519 519 519 520 522 523 522 522 523 523 525 528 530 528 528 530 530 530 533 534 532 530 532 531 528 537 537 540 543 544 551 544 542 536 542 544 546 545 544 544 545 545 544 547 547 548 548 549 549 550 549 549 552 553 553 552 553 554 554 555 554 557 557 556 557 555 555 556 559 560 561 560 562 557 557 561 562 562 564 564 566 567 567 568 567 570 569 568 570 573 572 572 572 575 574 575 577 577 581 580 579 580 582 583 584 583 586 589 591 592 593 594 591 593 592 593 594 596 595 596 597 599 600 599 600 601 602 602 602 604 605 606 606 609 610 609 609 610 612 612 612 613 615 616 619 619 619 621 620 621 622 623 624 627 627 627 629 630 633 633 633 636 639 641 642 642 644 647 647 650 650 655 658 661 662 664 669 672 677 681 684 688 692 696 700 707 715 722 727 733 737 742 749 757 765 775 786 792 802 811 818 826 834 852 872 901 931 950 960 969 984 1006 1030 1062 1098 1120 1147 1174 1191 1212 1237
895 936 966 949 902 852 814 805 794 788 787 763 728 690 639 595 553 537 530 521 517 517 517 524 538 549 534 494 469 463 459 460 458 458 460 463 464 465 465 465 464 465 466 465 464 464 466 466 467 467 467 468 468 468 467 468 468 470 477 480 480 480 487 485 480 479 486 487 485 484 484 484 477 479 476 478 477 479 479 479 482 485 483 483 482 478 478 479 479 482 483 483 482 482 484 482 485 486 485 484 484 485 486 487 488 487 487 488 489 487 488 491 494 494 492 492 492 492 494 494 493 495 495 495 496 496 495 496 498 499 497 498 501 497 501 501 500 501 503 503 502 503 503 503 504 506 506 506 506 506 506 507 507 508 508 508 508 509 509 509 510 513 511 512 513 515 515 514 516 516 515 517 515 516 519 519 518 519 519 522 522 525 524 524 524 527 527 528 527 528 530 528 530 533 535 532 530 531 530 532 535 537 540 543 542 547 546 537 533 541 542 545 543 543 542 543 545 546 548 547 548 549 549 549 550 550 551 552 552 552 553 552 553 553 554 553 555 554 554 557 556 556 557 558 557 559 560 560 559 556 560 563 563 563 567 566 565 566 568 570 571 567 568 569 572 575 574 580 579 573 572 573 576 581 583 579 579 583 582 582 582 586 587 589 591 589 589 590 590 591 591 593 594 596 595 595 596 598 597 597 600 601 602 603 602 602 603 606 610 611 609 609 609 611 612 612 615 616 615 616 617 619 619 619 622 622 623 625 627 628 628 628 631 633 634 634 636 638 640 640 643 643 644 648 649 651 657 659 662 666 668 670 675 677 681 685 688 693 697 701 706 713 722 725 735 740 747 752 759 770 780 788 799 809 818 826 835 848 862 878 900 926 943 954 958 966 983 999 1029 1059 1088 1119 1145 1172 1194 1221
866 911 953 963 927 890 871 866 849 822 792 746 703 659 624 586 557 545 543 543 542 549 559 567 574 548 503 473 462 457 460 459 457 458 462 464 465 464 465 465 466 465 466 467 465 464 465 466 467 466 467 467 468 469 468 469 473 480 484 484 481 481 483 483 482 483 486 488 490 490 491 487 481 478 474 476 476 479 481 479 478 478 479 480 483 482 483 482 482 481 481 480 482 482 483 483 484 484 484 485 486 486 486 487 487 488 486 489 489 489 490 490 491 492 490 492 492 491 492 492 492 494 496 496 496 494 493 493 494 496 498 499 497 498 500 499 500 502 503 501 500 504 506 503 503 503 504 506 507 506 508 508 507 508 509 511 510 511 509 509 510 512 512 513 514 517 515 514 516 516 517 516 515 515 516 517 519 519 520 521 522 523 521 523 523 526 526 527 527 527 529 528 528 529 530 533 530 532 532 530 534 537 539 542 542 540 538 540 536 537 543 541 543 543 543 543 544 547 547 545 548 549 549 549 549 549 549 549 550 552 550 550 552 553 553 552 552 553 555 555 554 554 557 556 557 558 558 558 560 558 557 563 563 563 564 565 566 567 566 566 569 568 568 568 572 575 570 576 577 574 575 575 576 577 579 581 582 580 580 582 583 584 583 588 587 585 588 588 590 591 591 592 594 595 594 596 596 597 596 599 599 599 600 602 602 602 604 603 606 606 607 607 608 611 612 613 614 614 615 615 617 619 619 620 620 620 623 626 626 626 628 629 630 630 632 634 635 638 640 640 643 646 647 649 651 654 658 660 663 666 670 672 677 680 683 688 690 694 699 702 707 713 719 727 734 740 747 756 761 769 780 790 802 813 821 831 842 854 868 884 898 912 922 935 946 959 973 983 1003 1029 1053 1079 1107 1143 1179 1206
857 895 940 976 967 945 925 892 847 795 749 707 668 629 603 584 565 557 570 594 597 598 606 602 568 525 482 466 461 458 460 459 457 459 461 465 464 463 465 465 466 466 465 466 466 464 464 465 465 466 467 466 467 472 473 479 478 481 483 479 480 481 479 479 482 484 487 488 487 490 489 482 478 476 475 476 476 479 479 480 479 479 478 478 479 478 480 481 480 479 481 482 481 482 482 483 483 484 485 485 486 486 487 486 487 488 487 488 488 487 489 490 490 492 491 491 491 492 492 493 493 494 495 496 496 495 497 494 496 499 498 497 498 498 499 498 499 501 501 500 502 502 502 503 503 505 506 507 508 507 507 509 509 510 510 510 511 513 509 508 510 510 511 512 514 515 515 516 516 515 516 516 517 515 519 518 520 519 519 521 523 525 523 522 524 524 524 527 527 526 528 528 528 529 529 530 530 531 532 528 535 537 535 541 545 543 543 544 537 544 548 544 540 541 543 541 541 543 544 545 547 546 549 548 548 548 548 549 548 550 550 549 551 553 553 552 553 551 552 554 553 554 555 554 555 555 558 558 559 557 559 561 563 562 563 563 564 564 564 567 570 569 566 570 574 575 571 573 573 575 574 573 575 576 579 578 581 582 581 581 583 583 584 586 587 588 588 587 588 590 591 593 593 593 592 594 597 595 595 597 597 599 599 601 602 603 603 603 603 606 606 608 609 610 611 612 612 614 615 618 616 616 617 620 620 620 622 623 624 625 627 629 629 631 632 633 636 637 638 639 638 644 646 649 651 653 657 660 663 668 672 674 678 681 685 690 694 699 703 706 710 716 725 731 735 740 747 755 763 771 780 791 801 810 820 832 845 859 869 881 892 904 918 931 942 955 968 978 992 1010 1033 1067 1109 1134 1153 1183
893 914 933 950 954 955 942 906 854 799 746 699 657 629 608 591 578 576 594 625 636 636 634 600 549 505 472 462 461 461 459 458 458 460 462 463 463 463 464 465 465 466 466 465 466 463 465 465 465 465 465 466 470 472 478 480 482 482 484 481 482 483 479 480 484 489 489 490 485 482 483 481 481 477 475 477 478 478 477 478 476 478 479 479 476 477 478 480 480 481 482 482 482 481 482 484 484 484 486 485 485 485 486 487 488 489 489 489 489 488 489 490 490 489 490 490 492 492 491 493 492 493 495 496 496 497 498 495 496 498 498 496 497 499 501 501 499 500 501 499 500 501 502 503 503 503 506 506 505 505 505 505 507 510 509 510 509 508 508 509 509 512 511 511 510 510 514 514 517 515 515 515 516 516 516 518 519 518 519 520 521 523 522 521 521 524 527 526 526 527 528 527 528 528 531 529 533 529 528 528 534 534 535 542 543 542 546 544 540 544 548 541 539 542 542 542 541 542 545 546 546 545 546 549 548 547 547 548 548 549 550 549 550 552 552 552 553 552 551 552 550 552 553 554 555 553 557 559 559 558 559 561 560 559 561 564 564 564 564 564 567 567 568 569 572 572 572 574 572 576 576 574 574 576 575 578 579 580 581 583 584 584 586 587 588 587 588 589 590 589 591 592 595 593 592 593 594 595 595 596 597 598 599 599 600 600 602 602 604 605 606 608 609 610 611 610 611 613 613 615 616 617 618 619 619 620 622 623 624 624 627 627 629 630 632 633 635 636 640 641 643 644 647 648 649 652 657 660 664 667 671 676 679 683 688 691 695 699 704 709 713 719 725 731 735 743 750 758 765 771 781 790 799 809 820 833 849 860 871 883 895 907 920 930 944 956 971 982 997 1010 1033 1058 1078 1099 1128 1171
883 880 878 887 886 899 917 914 875 824 771 731 688 650 619 595 578 580 587 597 605 598 590 569 537 489 466 461 459 460 460 458 460 462 463 463 463 463 463 464 463 464 465 466 465 463 463 464 466 466 465 464 466 472 477 481 483 479 481 483 486 486 479 481 485 486 489 486 480 481 486 488 487 482 475 474 474 476 476 477 477 477 476 478 479 479 475 478 480 481 482 483 482 481 480 484 485 485 485 486 485 484 485 488 487 487 488 488 488 489 489 490 489 491 489 489 492 492 491 491 493 492 493 493 495 497 494 495 496 496 496 496 496 500 501 503 501 500 501 497 491 491 501 502 502 502 505 506 505 505 504 505 507 507 505 506 510 510 511 511 510 511 512 511 509 511 516 516 515 514 514 516 516 517 517 519 518 519 522 519 519 521 522 524 525 526 524 525 526 528 527 528 528 528 526 530 533 530 530 530 533 534 537 541 538 538 543 544 544 543 545 542 540 542 542 540 541 544 544 546 546 545 545 546 546 547 546 546 547 548 547 550 549 549 550 551 551 551 552 553 552 551 552 554 555 556 557 557 558 558 560 559 560 560 560 561 562 563 562 564 564 564 566 567 570 571 570 570 572 572 573 574 576 575 576 577 575 577 580 581 582 582 583 587 589 586 587 589 588 589 592 592 592 591 597 598 596 595 594 596 596 597 597 599 600 601 602 602 604 605 605 606 608 610 610 609 612 613 614 615 617 617 619 619 620 620 622 623 625 624 626 628 628 631 631 633 635 636 639 642 647 648 651 652 651 653 658 659 661 667 672 676 680 684 688 691 696 701 708 711 716 721 725 731 739 744 751 761 767 776 782 791 801 811 822 833 848 861 871 885 899 909 922 934 945 958 973 986 999 1012 1027 1040 1057 1078 1107 1145
834 820 808 818 821 834 856 879 882 847 801 750 700 649 610 572 553 546 542 547 549 550 539 525 505 479 465 462 460 461 467 462 461 461 462 463 463 463 464 465 465 464 465 464 465 464 464 464 463 464 465 465 470 475 479 479 479 479 478 480 484 483 479 484 484 486 488 486 484 483 486 486 487 483 478 475 474 475 478 476 477 475 479 480 480 479 478 478 480 480 481 481 481 481 482 484 485 484 485 484 486 485 485 486 487 488 487 486 487 488 489 491 489 490 487 491 492 491 492 492 492 492 492 493 495 497 497 495 493 495 496 496 499 498 499 501 500 499 500 499 488 486 499 502 504 505 505 506 504 506 506 505 507 506 506 506 508 508 509 508 508 511 513 511 513 514 515 513 512 513 515 514 515 515 515 515 515 518 529 539 525 522 522 525 524 525 525 526 527 527 527 525 524 528 530 533 534 530 534 534 533 535 535 537 538 539 543 542 540 545 543 540 539 540 541 540 542 542 542 543 545 545 545 546 545 547 546 547 549 547 547 548 549 549 549 549 549 550 553 553 552 553 553 554 554 555 555 557 555 557 558 556 559 561 559 562 561 561 562 563 564 566 566 564 567 567 571 573 575 574 571 572 573 574 577 576 578 580 581 581 582 582 583 586 587 586 588 588 588 589 591 591 593 592 598 597 595 592 594 595 595 597 598 598 599 600 602 605 605 607 607 607 607 610 610 610 612 612 614 615 617 617 618 618 620 620 621 622 625 625 625 626 628 631 632 633 635 639 639 643 644 646 649 652 653 654 658 660 664 668 673 678 680 685 687 693 696 703 709 714 720 724 727 735 741 747 754 759 767 776 786 794 804 816 825 832 843 863 880 894 904 913 924 938 947 959 973 986 999 1015 1028 1041 1062 1075 1092 1120
789 767 746 764 763 767 796 833 850 832 810 767 708 658 621 575 544 525 510 505 506 505 494 483 471 464 462 459 459 463 466 460 461 463 462 462 462 462 462 462 463 463 462 462 463 465 465 463 464 465 466 470 474 477 476 478 478 481 479 476 482 484 483 486 488 487 487 486 485 486 483 476 480 481 477 477 476 476 476 475 476 478 479 478 477 477 480 481 480 480 481 481 482 483 482 482 482 483 483 482 485 485 486 486 486 486 488 488 487 487 488 488 489 491 490 495 492 492 492 491 491 493 494 494 497 496 497 495 492 496 497 497 498 498 499 499 499 499 501 501 493 495 504 503 504 504 504 503 504 505 505 504 505 507 508 506 508 508 510 510 510 509 511 511 511 511 514 514 514 513 513 516 516 515 517 516 516 519 521 536 533 524 522 523 523 524 524 524 523 524 525 526 524 526 527 528 532 533 535 534 532 537 536 538 540 537 540 539 540 542 543 539 540 540 539 539 541 539 541 542 544 545 544 545 545 545 544 545 546 547 545 546 548 547 546 547 548 550 551 550 552 552 553 553 552 553 555 557 559 559 558 558 560 560 560 560 561 562 563 561 563 565 566 563 569 569 569 570 571 573 573 572 573 573 576 577 578 579 581 582 583 584 585 586 584 584 587 586 587 589 589 589 591 592 592 591 592 592 594 595 595 596 597 597 598 598 601 603 605 606 605 606 607 607 609 611 610 611 612 614 615 615 619 618 619 620 620 622 624 626 626 628 630 632 634 635 637 639 642 645 644 644 648 651 654 655 659 662 664 669 673 678 682 687 688 694 698 703 710 715 721 727 733 740 745 751 758 762 769 778 786 796 804 816 823 834 846 868 887 903 912 917 926 935 945 958 971 985 1002 1022 1041 1065 1091 1100 1100 1108
743 719 697 713 711 716 754 793 803 784 781 764 716 662 620 583 553 524 505 492 486 479 472 466 462 459 459 459 459 464 460 459 460 461 461 461 461 461 461 463 462 463 464 464 464 464 463 463 465 465 469 476 476 476 473 476 478 475 480 482 480 484 486 487 489 488 485 483 484 486 483 478 477 476 478 479 479 477 479 477 477 476 476 476 476 478 481 482 480 481 481 481 482 482 482 482 482 483 484 484 484 484 485 485 486 486 488 487 488 488 487 489 488 489 489 493 492 493 493 494 493 492 493 493 496 495 498 498 495 497 497 497 498 499 497 498 498 500 500 502 502 503 503 504 503 503 503 502 503 503 505 505 505 508 509 509 508 508 509 511 511 510 512 512 512 510 511 512 512 513 512 513 516 516 517 517 517 519 518 521 520 524 523 522 523 522 523 524 523 524 525 525 526 528 527 530 530 530 535 535 531 533 533 535 537 535 539 541 538 541 544 543 539 538 539 539 541 539 539 542 542 544 545 544 544 545 546 545 545 546 546 546 547 546 547 546 548 550 549 550 551 552 551 553 553 553 554 556 560 558 558 556 558 559 561 559 560 561 561 560 562 564 565 566 569 568 570 571 571 571 568 571 571 573 576 577 577 576 578 580 581 583 583 584 583 583 584 585 587 588 589 589 590 590 592 592 592 593 595 595 595 597 598 599 599 601 603 603 604 604 605 605 607 607 609 609 610 612 612 613 616 614 617 617 620 622 622 624 625 627 628 628 631 633 634 637 639 641 646 647 647 647 649 652 653 656 658 661 665 669 673 678 682 686 691 696 701 704 711 718 724 728 736 741 748 753 761 767 772 783 793 798 804 814 825 836 848 868 886 900 909 916 925 933 944 955 971 1000 1030 1049 1071 1098 1129 1150 1150 1131
702 673 650 664 661 680 719 743 748 732 733 747 717 657 608 562 540 519 500 489 480 474 465 461 461 459 458 458 457 459 459 460 460 461 461 460 461 461 461 461 461 462 463 464 464 464 462 463 464 467 473 478 476 478 475 478 481 466 472 481 480 486 490 489 484 486 486 484 487 486 481 476 476 477 482 481 479 477 478 475 477 478 477 477 479 478 480 483 480 480 480 480 482 482 482 482 483 484 486 486 485 485 485 485 486 487 487 487 488 488 488 489 489 489 489 491 489 492 495 496 496 492 492 494 494 495 495 497 497 497 497 498 498 501 501 501 499 499 501 503 502 502 503 503 501 503 502 501 503 504 505 506 506 508 510 511 511 510 510 511 511 510 510 510 513 512 513 514 514 514 513 514 514 514 518 517 516 518 519 522 522 519 520 523 525 522 523 524 525 525 525 526 526 530 528 528 530 529 532 533 531 533 533 536 537 536 539 538 537 539 541 540 538 538 538 540 541 542 540 540 542 544 544 542 544 543 544 545 545 546 546 547 547 546 547 547 546 547 549 550 550 549 549 553 555 554 553 556 555 556 558 558 559 558 560 561 560 560 561 561 561 563 564 564 568 567 567 568 570 570 570 573 572 573 574 575 575 575 577 583 580 581 581 583 583 583 584 584 586 586 589 590 589 589 591 591 592 593 594 594 595 595 597 598 599 601 603 604 604 605 604 605 607 606 607 608 609 612 611 611 614 615 617 619 622 624 624 625 627 628 629 629 632 635 636 639 641 641 644 646 649 649 652 652 653 655 659 662 665 669 673 679 683 687 691 698 702 707 712 718 725 732 738 744 751 757 764 772 778 784 792 799 807 815 826 835 843 867 890 904 908 917 922 929 936 946 972 1015 1056 1090 1112 1137 1165 1190 1195 1185
662 641 615 620 623 650 680 693 684 675 693 719 701 664 617 570 535 514 498 487 477 470 464 461 460 459 458 457 457 456 458 460 458 459 460 460 462 461 463 463 463 462 461 462 464 464 464 464 464 472 479 473 481 479 477 483 489 497 480 481 481 485 490 487 482 484 487 483 486 486 482 479 479 481 478 476 475 478 478 474 475 475 476 478 480 479 479 481 480 480 481 481 482 481 482 482 485 485 484 484 485 485 486 486 487 487 487 486 486 487 489 489 489 490 490 491 494 493 495 495 496 492 493 497 497 495 495 495 497 497 495 497 497 499 502 500 498 499 502 502 501 502 500 501 501 502 502 502 504 505 506 505 506 506 508 508 509 508 511 509 508 510 511 511 511 511 511 515 514 513 513 514 515 516 518 519 518 518 519 519 519 519 520 524 524 523 524 523 523 523 524 525 527 527 528 527 529 528 530 530 530 532 534 534 534 533 535 536 538 535 536 535 537 539 539 539 538 541 540 541 541 542 541 541 541 544 545 544 542 545 545 546 547 546 546 549 548 547 548 549 550 550 551 549 552 552 554 554 556 558 559 565 559 558 556 558 560 563 564 563 563 563 564 564 565 566 567 569 569 570 571 573 572 574 573 574 575 576 577 580 580 581 582 582 582 582 583 583 584 586 586 588 590 591 591 590 592 592 593 593 596 598 597 598 599 599 602 603 604 605 603 604 606 606 606 608 610 612 612 613 615 616 616 620 621 622 623 624 626 629 630 632 635 636 639 641 643 642 643 646 649 651 653 655 657 659 661 664 667 670 674 679 684 688 694 699 705 709 716 720 727 733 739 747 754 762 768 774 780 788 796 803 807 816 825 835 842 864 894 911 917 920 924 928 938 948 971 1014 1062 1101 1132 1166 1198 1221 1234 1229
635 623 589 585 593 616 637 640 629 630 656 675 667 647 627 592 559 527 501 483 473 468 462 461 460 458 457 458 458 458 458 458 459 460 461 461 461 463 462 463 462 461 462 464 464 465 463 465 472 480 474 474 474 478 478 486 482 479 480 486 486 485 484 484 484 482 482 484 485 483 484 484 482 479 477 478 480 482 477 476 475 474 476 478 478 477 478 479 479 479 480 480 481 482 483 482 484 485 484 485 485 486 485 486 487 486 486 486 487 487 489 489 490 490 492 491 490 491 493 494 496 494 496 498 494 494 494 495 499 498 496 498 498 498 500 501 501 501 499 500 502 502 502 502 502 504 504 502 504 503 505 505 506 505 507 506 507 510 509 509 508 510 511 511 513 511 513 513 512 514 514 516 515 516 518 518 518 518 518 517 520 522 522 522 522 524 523 523 521 521 524 525 526 527 528 528 529 529 529 529 529 531 531 533 533 535 536 538 539 536 534 535 537 537 538 539 539 539 539 541 541 542 541 541 541 542 543 545 545 544 543 545 546 547 546 548 547 548 548 547 550 551 551 550 551 554 554 554 554 557 558 559 557 558 558 558 560 563 565 565 563 565 565 566 565 566 568 568 569 569 570 573 572 573 573 573 574 573 576 580 583 581 581 581 581 581 581 583 584 585 586 588 589 588 589 591 591 591 592 594 595 596 598 597 596 598 602 603 601 601 603 604 605 605 606 608 610 612 612 613 615 617 617 619 621 623 625 625 628 630 632 634 635 638 640 643 645 645 646 648 650 652 654 659 662 662 663 666 668 671 676 678 685 690 694 700 705 711 719 724 727 735 743 750 757 764 771 779 786 794 800 807 815 822 831 840 849 868 894 910 919 925 928 931 942 952 976 1009 1050 1088 1126 1166 1206 1234 1260 1269
595 592 573 565 568 579 591 592 585 595 621 627 612 603 613 607 577 542 508 485 471 464 459 458 458 458 458 458 457 457 459 460 459 461 460 460 460 462 461 461 461 460 461 463 462 462 464 472 474 487 477 475 478 482 485 474 453 470 482 487 483 482 481 482 483 482 484 485 484 483 485 485 484 479 481 482 482 481 479 479 476 475 477 476 476 477 478 477 479 477 479 480 481 482 482 483 484 483 484 483 485 485 485 486 486 486 486 488 488 488 488 489 489 489 489 491 491 491 491 492 493 493 493 494 492 493 494 494 497 498 497 498 499 498 499 499 499 500 500 500 500 501 503 503 502 502 504 503 502 504 506 507 505 505 505 507 506 508 509 509 511 510 510 512 512 510 510 512 510 514 515 515 516 516 517 516 515 516 517 517 519 521 523 522 521 521 520 521 522 523 523 524 528 528 526 527 527 527 528 528 530 531 532 532 531 535 538 537 539 538 534 534 535 536 537 537 538 538 538 539 541 543 544 542 541 543 544 544 543 544 544 545 545 546 546 547 547 546 548 550 550 550 550 552 552 554 554 553 555 554 555 554 555 557 560 561 564 563 561 563 564 564 566 566 566 566 568 568 567 569 571 571 574 573 573 575 574 575 578 578 579 580 580 581 580 582 582 582 585 585 585 586 587 589 590 590 590 591 592 595 595 595 597 596 597 597 601 600 601 602 602 603 605 606 607 608 611 612 612 613 615 616 619 620 622 623 625 626 630 632 634 635 637 640 641 643 644 647 649 651 652 654 655 660 663 664 665 669 671 672 676 680 686 692 696 702 707 713 721 726 732 739 746 752 759 767 773 782 790 799 804 812 820 830 837 846 855 867 888 912 924 932 933 937 945 960 976 1005 1038 1072 1112 1154 1195 1227 1255 1285
551 556 555 545 540 540 548 548 547 564 576 576 565 561 578 601 576 543 507 486 473 463 458 458 456 458 458 458 458 457 460 460 459 461 461 460 459 460 460 461 460 461 461 460 461 461 466 471 473 480 481 475 481 484 482 476 479 481 486 482 482 481 480 479 482 483 483 483 482 480 479 481 481 480 481 479 477 475 475 475 476 477 477 477 477 477 478 480 479 480 481 480 481 481 482 484 484 482 482 484 485 485 484 485 486 486 485 486 487 487 488 488 490 490 489 490 491 491 492 491 492 493 493 492 493 493 493 493 495 495 496 496 497 498 501 500 499 500 500 499 500 501 502 504 503 502 503 504 504 505 504 505 505 506 507 506 507 507 507 508 509 509 511 513 513 513 511 514 514 514 515 515 515 518 517 516 517 517 518 519 520 520 521 521 521 521 521 523 522 525 525 524 527 526 526 528 526 528 528 530 531 531 531 530 532 534 534 534 535 535 536 537 535 534 534 534 535 538 539 542 541 541 541 541 542 542 541 543 542 543 544 545 545 546 547 547 547 546 547 548 548 549 551 552 552 551 553 552 554 554 556 555 556 558 561 560 563 563 560 562 564 564 564 566 568 568 568 567 567 568 570 571 572 573 572 575 575 576 577 576 578 579 579 580 579 581 583 586 586 586 585 586 590 588 587 590 592 592 592 594 593 594 596 595 597 597 600 600 601 602 604 604 604 607 608 610 611 611 612 613 614 616 618 620 623 624 626 627 630 631 633 635 639 641 642 644 647 649 650 653 654 656 659 662 664 666 668 671 673 676 678 681 686 691 697 703 709 713 722 727 734 742 749 755 762 772 779 787 795 804 810 819 829 836 842 848 858 869 881 899 917 927 937 943 952 966 977 1004 1039 1077 1118 1159 1199 1221 1242 1274
521 524 531 530 522 516 512 516 517 529 536 527 521 530 555 582 582 557 533 513 484 465 457 456 455 456 457 456 459 459 458 461 460 459 460 459 459 459 459 460 459 459 460 459 460 462 467 470 475 475 479 475 485 481 480 477 482 483 484 481 480 479 478 481 482 482 480 479 477 477 479 479 479 477 477 473 473 475 477 477 478 477 478 478 474 476 477 477 479 480 479 480 480 480 481 482 483 482 483 485 485 484 484 484 485 485 485 485 486 488 491 490 491 490 489 490 490 490 489 490 492 492 490 492 493 493 494 494 494 495 496 498 497 498 500 499 498 500 500 501 500 501 502 504 505 505 503 502 504 505 504 505 505 506 505 506 507 509 507 510 508 509 511 511 513 513 513 514 515 514 514 515 516 518 516 517 517 519 518 521 521 520 522 523 524 524 522 525 526 525 522 522 526 528 527 527 527 527 528 530 531 532 531 531 532 533 534 533 534 535 537 536 538 538 536 536 536 539 540 539 540 541 540 540 542 541 540 542 542 544 544 544 544 545 546 547 546 547 549 547 547 550 552 552 553 554 553 553 553 553 554 556 557 558 559 558 560 561 561 562 564 563 564 565 565 566 565 566 566 567 570 571 572 573 572 572 575 575 576 577 576 579 579 579 579 582 583 583 584 584 585 587 586 584 586 589 591 593 592 592 593 592 595 595 596 598 598 599 600 601 603 604 605 606 607 609 610 611 612 615 617 617 618 619 621 623 625 628 630 632 632 636 640 642 645 645 649 651 653 655 656 658 661 664 665 668 669 673 675 678 680 683 687 692 697 704 709 716 725 730 736 743 750 757 765 772 781 791 798 808 818 824 834 842 850 857 865 872 880 900 918 930 941 945 956 973 987 1004 1033 1071 1117 1151 1173 1186 1208 1238
515 510 514 515 511 505 498 500 500 499 501 500 499 516 539 555 576 590 575 534 505 480 462 459 458 458 458 457 457 459 459 458 460 459 458 458 459 460 459 459 461 461 461 460 460 462 466 472 474 482 506 481 483 483 480 480 486 483 480 477 476 478 477 480 479 477 475 475 474 474 478 478 474 472 474 473 474 473 475 475 476 477 477 477 476 476 478 477 477 478 479 481 482 480 481 482 482 482 484 484 485 484 483 485 484 485 485 486 487 489 489 490 488 489 490 491 491 490 490 490 492 491 491 492 494 493 494 494 495 495 494 496 497 497 499 496 498 499 500 500 500 500 501 504 503 504 502 503 505 505 505 505 504 508 505 508 508 509 507 507 509 511 511 510 510 511 512 513 513 515 514 515 517 517 516 516 519 520 520 520 520 520 522 524 524 524 524 524 525 525 523 524 526 527 527 525 526 527 527 528 530 530 532 532 532 532 533 532 535 536 537 536 538 537 537 539 537 539 540 538 542 542 540 541 542 542 541 543 544 546 545 544 544 543 545 546 547 547 548 549 549 552 553 552 550 551 552 554 552 553 556 556 557 557 561 559 557 562 562 561 561 560 560 563 563 566 566 567 567 567 568 569 572 573 572 574 575 574 575 577 578 579 578 579 580 581 580 581 582 583 585 586 587 587 589 589 590 592 592 592 591 591 594 596 597 598 601 600 601 601 603 603 607 608 608 610 611 612 614 615 617 619 619 620 623 624 626 627 629 632 634 638 641 642 645 649 652 653 655 658 659 661 664 666 667 669 672 674 678 682 683 686 689 694 700 706 711 718 724 732 739 745 753 759 767 775 782 794 803 810 820 829 837 847 856 864 874 882 887 903 921 934 945 954 961 973 988 1001 1020 1048 1083 1112 1129 1141 1164 1180
505 499 501 502 500 497 492 493 492 486 487 492 493 499 513 535 575 602 589 549 516 481 462 459 457 457 461 460 457 457 458 460 459 459 461 459 459 461 460 460 459 460 460 460 459 463 465 469 471 476 477 476 487 483 481 481 479 480 480 477 474 477 476 478 475 473 474 474 473 475 473 473 472 473 474 474 473 474 475 474 475 477 476 476 475 477 476 477 478 478 480 482 482 482 480 482 482 483 483 483 484 485 484 483 483 485 484 486 486 488 488 489 488 489 491 490 490 490 489 490 491 492 492 492 492 493 494 495 496 496 495 496 497 496 496 497 498 499 500 500 500 502 500 502 503 503 505 503 504 505 506 506 506 507 505 507 505 508 510 509 510 511 512 510 510 511 513 512 511 513 513 515 515 516 516 516 519 519 520 521 519 517 520 521 524 524 524 524 526 526 524 524 525 526 526 527 527 528 528 530 531 530 531 533 532 532 533 535 537 536 534 536 539 539 540 541 539 538 539 540 540 540 538 539 540 540 542 543 542 544 545 545 544 543 546 545 548 547 548 548 549 550 551 551 550 550 552 552 553 554 557 558 558 557 558 559 558 558 560 561 561 561 560 564 564 566 566 568 569 567 568 569 573 574 572 573 574 575 574 575 579 579 579 578 579 579 581 581 582 583 583 585 585 588 590 591 590 590 590 592 591 593 594 595 597 599 602 601 602 603 603 605 606 608 609 610 611 612 614 616 616 618 620 622 624 625 627 629 630 633 636 639 643 644 648 650 652 654 657 659 662 664 666 668 671 671 675 676 680 683 687 691 693 697 702 708 711 718 727 733 740 746 753 762 770 780 788 797 804 812 822 828 840 850 861 870 880 892 901 910 921 937 951 960 967 980 991 1002 1015 1031 1050 1071 1088 1099 1116 1129
496 494 494 491 490 489 484 485 483 482 480 479 486 491 506 533 571 593 568 529 493 466 458 455 457 457 456 456 456 457 458 460 459 459 459 459 460 459 459 458 459 459 458 459 460 465 470 469 470 472 470 474 479 479 480 478 477 480 480 477 474 477 475 475 473 472 472 473 471 472 472 473 473 474 474 473 471 472 474 474 474 475 475 475 476 477 476 476 478 477 477 477 477 479 481 482 481 481 482 483 483 483 485 484 485 485 486 487 486 486 486 488 489 489 489 489 490 489 489 491 492 493 491 493 493 493 494 495 496 496 496 497 498 497 497 498 499 499 500 501 501 502 503 502 501 501 503 504 504 505 505 507 509 507 504 505 504 504 507 509 509 510 513 511 511 512 512 511 512 514 514 516 515 515 516 519 517 517 518 518 519 518 519 519 522 522 521 523 523 526 527 526 525 523 525 524 526 527 528 530 532 532 529 529 530 531 533 533 535 535 533 534 536 538 538 535 535 538 539 538 539 540 538 540 539 538 540 541 543 542 544 545 545 545 547 547 548 548 547 549 550 550 552 550 549 550 552 553 553 553 555 557 557 559 559 560 559 559 558 560 561 563 563 562 563 565 566 567 568 567 567 569 571 572 570 571 574 575 575 577 580 580 578 577 577 578 580 581 583 583 583 585 585 587 588 589 590 589 591 591 593 593 594 596 597 599 598 600 602 604 604 606 607 609 611 610 613 613 615 616 618 618 621 623 624 627 628 629 631 634 639 640 642 644 645 650 653 655 657 660 664 669 671 670 674 675 678 680 682 686 690 695 695 699 704 710 714 720 726 732 740 746 754 761 771 778 788 796 803 811 820 830 843 851 863 873 883 893 905 915 926 941 952 964 972 983 996 1007 1018 1032 1044 1055 1066 1080 1097 1111
492 489 486 483 484 482 479 477 479 478 479 479 486 491 507 532 565 571 541 509 479 460 457 456 458 456 456 457 455 457 457 458 458 459 459 458 457 460 459 458 458 459 460 462 462 467 471 471 467 467 466 473 479 475 477 477 474 475 478 477 475 474 472 471 472 472 471 470 470 470 471 473 471 472 471 472 471 473 473 473 473 475 475 474 477 479 477 477 476 476 477 476 476 477 480 483 482 482 482 482 483 484 482 483 483 484 484 486 488 487 488 488 487 488 488 489 491 490 491 491 492 492 492 494 493 494 493 494 495 495 496 496 496 496 498 499 498 500 501 501 501 502 503 501 501 502 502 502 502 506 510 511 509 512 510 507 505 505 509 509 509 509 511 513 514 515 513 512 515 515 515 516 515 515 513 515 518 518 517 517 519 519 520 521 521 520 521 523 524 524 525 526 525 526 527 527 529 530 528 527 530 530 529 530 530 531 531 533 532 532 533 533 535 537 538 535 535 538 538 537 538 540 541 540 540 539 540 541 544 544 543 544 544 544 547 548 545 546 548 548 549 550 550 550 548 551 552 553 554 553 555 557 559 562 560 558 560 559 558 558 561 563 563 563 564 565 565 565 567 567 568 568 569 570 571 573 574 575 576 575 576 576 577 577 578 578 579 580 580 582 582 584 586 586 587 588 588 589 590 591 592 592 594 594 596 597 599 601 602 604 604 606 608 608 611 611 613 615 615 617 619 620 624 624 625 627 628 631 633 635 638 642 643 643 647 651 654 656 658 662 664 669 670 672 674 677 680 682 686 689 691 695 697 701 707 711 713 719 724 730 738 747 754 762 770 778 785 793 801 809 820 829 839 849 861 870 882 894 904 916 930 944 950 959 971 983 992 1001 1014 1026 1044 1059 1074 1092 1120 1137
483 483 481 480 480 478 476 475 475 474 477 478 485 499 522 545 569 556 523 493 471 461 457 456 457 459 456 455 456 457 456 457 458 460 460 459 458 459 459 458 458 458 462 469 462 465 470 471 469 466 468 471 470 471 475 474 474 471 471 470 470 470 469 470 471 471 470 471 471 472 471 474 471 470 470 472 472 473 472 473 474 474 474 475 477 478 477 476 476 477 477 477 478 479 481 486 485 484 480 481 483 485 485 485 486 485 486 485 489 488 487 487 487 488 488 490 490 490 490 491 492 493 492 492 493 492 493 494 494 495 495 495 495 495 496 498 500 499 500 499 502 501 502 501 504 502 502 505 506 507 511 509 509 513 511 505 508 509 509 510 510 509 509 510 513 514 514 513 516 516 516 515 516 516 515 516 517 516 516 516 518 517 520 521 522 522 521 522 526 528 526 526 526 527 525 526 528 530 529 528 530 529 531 532 532 532 532 534 533 533 535 533 533 535 536 536 537 537 537 537 539 542 540 540 540 543 543 542 542 544 543 544 545 541 542 548 548 547 548 550 548 549 549 550 551 552 549 552 553 554 556 556 558 558 557 557 559 559 559 559 561 562 563 564 563 564 564 564 565 565 568 568 569 569 571 572 575 574 576 576 575 576 576 578 578 578 580 580 580 582 583 584 584 585 586 587 588 590 591 591 592 592 594 596 598 598 598 601 601 603 606 608 608 609 611 613 612 614 616 618 620 621 623 625 627 630 631 634 634 636 638 642 644 646 648 650 655 658 661 664 665 668 670 672 675 678 683 687 688 689 692 695 699 703 709 712 715 719 726 732 737 746 753 759 767 774 782 792 799 806 816 826 835 846 856 866 877 889 904 918 928 941 950 961 970 981 995 1015 1028 1041 1056 1078 1099 1124 1153 1177
477 479 477 478 476 476 473 473 476 473 475 475 481 502 530 557 574 558 529 499 485 472 462 457 456 458 456 454 456 457 457 458 459 459 459 459 460 460 459 457 457 459 466 470 461 465 467 466 473 469 468 467 466 469 473 473 473 471 469 470 469 469 468 468 469 470 470 470 470 471 470 472 472 470 471 471 472 474 473 473 474 474 475 475 476 475 474 475 477 478 480 479 479 481 483 480 483 488 484 484 484 484 485 487 488 486 487 488 487 486 487 488 487 489 488 489 489 490 491 492 492 494 493 493 493 494 493 495 495 495 495 496 497 500 499 496 498 500 500 499 497 499 502 502 509 511 508 512 506 513 509 510 513 512 508 504 506 508 508 510 511 511 509 509 512 512 515 518 518 517 517 517 517 517 519 519 520 519 517 522 524 521 520 520 522 522 522 523 524 526 527 526 526 526 526 526 526 528 529 528 529 529 531 533 531 530 531 534 533 535 536 537 535 537 536 538 539 539 539 539 539 541 541 541 541 541 542 543 543 543 546 546 545 543 542 545 546 547 548 549 549 550 549 550 551 552 552 551 553 552 555 554 555 557 557 557 558 557 559 559 562 561 562 564 562 563 564 565 564 565 566 568 568 570 570 571 573 573 574 576 577 577 578 575 577 578 579 581 581 582 581 583 585 586 585 587 588 590 591 592 593 593 595 596 597 599 599 600 601 604 606 608 609 611 611 613 613 616 617 619 621 622 624 626 628 630 633 634 636 639 640 642 644 646 650 651 655 657 662 664 667 669 672 674 675 679 683 685 688 692 694 697 701 706 710 712 717 722 726 731 738 745 752 760 765 773 782 790 797 804 813 822 831 841 849 857 870 885 901 915 927 939 947 956 964 976 996 1031 1056 1070 1083 1102 1128 1154 1191 1232
474 473 475 473 472 473 471 471 467 472 476 480 482 497 518 547 576 581 562 537 521 510 475 459 457 455 454 453 456 457 458 459 458 460 458 460 461 461 461 459 459 461 467 462 461 464 466 471 478 479 470 467 465 466 468 472 473 471 468 467 467 467 467 468 469 468 469 470 470 470 470 471 471 469 471 471 471 472 472 472 474 474 474 474 473 473 474 477 476 476 479 480 483 483 484 481 485 488 486 484 484 485 486 487 487 489 487 487 486 486 487 488 488 488 488 489 489 490 490 491 491 495 495 494 493 494 494 495 495 496 496 497 498 499 499 498 497 499 499 500 501 503 503 505 510 509 510 509 505 508 509 509 512 510 506 505 504 508 507 509 509 511 510 513 515 513 515 516 517 516 515 518 520 519 520 519 518 518 518 523 523 522 521 523 521 522 523 525 523 525 527 526 527 527 527 528 528 530 530 529 527 529 532 533 532 532 533 533 534 535 535 537 537 539 538 538 540 539 539 540 541 541 541 541 541 542 542 543 543 543 546 547 546 544 546 547 547 548 548 549 551 550 549 550 551 552 553 550 552 553 556 554 557 557 557 558 558 557 559 559 561 563 562 563 561 564 565 565 565 566 566 568 569 570 571 572 573 573 573 574 575 575 577 577 578 579 579 581 581 582 582 583 584 585 586 588 588 590 590 592 593 594 595 595 597 598 598 601 602 604 606 608 609 611 612 614 616 618 619 621 622 623 626 628 628 630 633 634 636 638 642 643 645 648 651 653 654 658 661 663 666 669 673 676 678 681 682 685 691 694 697 699 703 707 710 716 720 723 726 731 736 744 752 757 763 772 780 787 796 804 812 818 824 833 841 847 865 880 897 913 924 940 946 948 961 979 1004 1035 1074 1100 1121 1141 1166 1194 1228 1270
472 471 472 472 473 470 470 471 471 471 477 482 489 503 529 558 594 620 602 576 548 512 479 460 456 458 454 453 456 456 456 455 457 459 459 460 458 459 458 459 457 462 465 461 466 470 471 473 478 483 477 470 466 466 469 471 472 469 468 466 468 467 468 468 468 469 468 470 471 471 471 470 470 470 469 470 472 473 473 474 473 475 476 475 475 475 476 476 475 477 478 476 478 480 479 480 482 486 483 484 485 484 486 487 487 489 486 486 486 486 486 486 488 489 489 489 490 489 490 491 492 492 493 493 493 493 494 495 496 496 495 495 497 499 501 501 497 499 499 498 499 502 502 503 504 503 504 502 502 502 504 505 507 506 507 507 508 508 509 509 509 511 512 512 516 515 515 515 516 516 516 519 519 518 518 519 519 519 519 519 520 520 521 523 524 524 524 525 524 525 526 526 527 527 528 528 528 530 531 530 529 529 531 532 533 533 534 533 535 535 536 535 537 539 539 538 542 541 539 539 541 540 542 541 541 542 544 544 543 546 547 545 545 545 547 548 548 549 548 548 549 551 549 551 551 552 552 553 553 553 554 555 556 558 559 560 559 559 558 559 561 562 563 564 562 565 565 566 566 566 567 566 568 570 571 571 572 571 573 573 573 574 575 577 577 576 578 579 580 581 581 582 584 586 587 587 589 590 591 592 593 595 596 596 599 598 598 602 602 604 606 607 608 611 613 614 616 618 618 620 623 623 625 627 629 632 634 635 636 638 642 644 647 648 651 653 656 657 661 663 666 669 673 675 680 682 685 688 693 695 698 700 704 708 711 714 719 723 726 733 737 745 751 755 761 770 777 784 791 799 804 813 820 826 832 840 856 871 886 907 923 936 943 947 962 985 1012 1047 1087 1129 1159 1184 1209 1237 1267 1296
471 471 472 471 472 470 470 470 471 472 476 482 488 503 528 561 604 640 629 583 542 505 478 463 457 458 457 453 454 455 456 455 456 458 459 459 457 456 456 457 458 458 461 459 463 469 466 472 474 474 475 469 463 467 469 468 467 466 466 467 466 466 467 468 469 470 469 471 470 471 471 472 471 471 471 471 472 472 474 473 473 472 474 475 475 474 476 475 475 477 477 477 480 480 479 479 483 484 483 485 485 486 488 488 486 486 486 486 486 486 486 487 488 488 489 490 490 490 490 491 492 495 494 493 494 494 494 495 495 494 496 497 497 499 499 499 497 496 497 497 497 499 500 501 499 498 492 488 491 498 504 504 506 506 506 507 510 508 508 509 510 511 511 513 515 516 517 517 516 517 517 517 517 517 517 519 519 519 521 521 521 522 521 522 523 524 523 525 525 526 528 528 531 530 528 528 527 527 529 530 531 530 532 532 533 534 535 537 537 537 536 539 540 538 540 539 542 542 542 546 542 541 541 542 544 544 543 544 545 546 546 546 547 545 547 547 548 549 547 549 551 548 549 552 551 550 553 553 553 553 553 555 556 558 561 559 558 558 558 559 561 562 563 564 562 564 566 564 566 566 568 568 568 569 570 571 571 570 572 574 576 575 575 576 576 577 579 579 581 583 583 584 585 585 586 586 588 590 593 593 594 595 598 601 599 599 600 600 601 604 606 609 611 612 613 615 617 618 620 622 623 623 626 629 630 632 635 637 638 642 643 645 648 650 652 655 657 660 662 663 665 669 673 676 680 682 687 690 692 694 699 702 707 709 712 718 722 723 729 735 740 745 750 753 760 768 775 781 787 796 802 807 814 822 832 841 854 875 886 907 933 948 949 950 968 994 1026 1058 1099 1142 1180 1209 1235 1259 1281 1303
470 471 471 470 470 469 468 469 470 471 472 474 481 493 517 555 588 615 630 604 561 520 488 468 460 457 458 456 455 455 457 456 455 458 457 458 458 456 457 458 458 459 460 461 462 465 464 468 471 472 470 465 465 466 467 466 466 465 466 468 467 466 465 466 468 470 470 470 469 470 471 471 471 471 471 472 473 472 471 473 474 473 474 477 475 474 477 476 476 478 477 478 479 480 484 479 483 484 485 486 484 485 487 488 488 486 485 485 485 487 487 488 488 487 488 488 489 491 491 489 491 491 493 493 493 493 493 494 494 495 498 497 494 497 498 497 498 497 499 495 492 489 493 492 490 487 484 482 491 503 507 506 506 507 507 507 509 508 509 510 511 511 512 514 514 515 517 516 516 516 517 517 520 519 517 519 519 520 520 520 523 524 522 523 523 525 525 526 527 527 528 530 531 532 531 530 527 529 528 532 533 531 533 533 534 534 536 535 536 536 538 540 540 543 539 538 542 541 546 547 544 544 543 545 544 543 544 544 546 546 547 547 546 547 549 548 549 549 549 549 554 551 553 554 554 551 552 552 553 553 554 555 557 558 560 560 559 559 560 560 561 561 561 562 564 564 566 565 566 567 567 570 570 569 569 570 571 571 572 573 574 573 575 575 577 578 579 579 581 581 583 584 584 584 585 586 589 591 592 593 593 595 599 601 599 598 602 600 602 605 607 608 610 614 615 619 620 619 621 623 623 625 627 630 631 632 635 636 639 642 644 646 648 651 654 655 658 661 662 663 667 670 673 677 679 683 687 689 691 696 699 701 708 710 713 718 723 726 732 736 741 746 751 755 761 768 774 780 787 796 801 804 816 825 834 842 857 879 893 912 937 953 953 956 970 997 1035 1074 1106 1136 1165 1191 1219 1244 1265 1283
468 469 469 468 467 469 468 469 468 470 471 474 476 488 513 543 564 579 606 611 574 526 494 482 476 464 459 455 455 456 456 456 455 457 457 457 456 457 460 459 458 459 460 461 463 462 462 468 471 471 470 467 466 464 466 466 465 466 465 467 466 467 466 465 466 467 469 469 469 472 471 471 471 471 472 473 472 472 470 472 473 474 475 476 474 475 474 476 476 476 478 478 478 477 485 482 482 482 485 485 483 482 483 487 486 484 485 485 486 488 486 488 488 488 487 487 489 490 489 490 495 495 494 494 493 492 492 495 494 493 494 492 492 491 490 488 487 484 485 486 483 485 486 487 486 482 478 480 494 505 505 505 508 508 510 509 507 508 509 511 514 511 514 516 515 515 515 515 515 517 517 517 518 521 520 518 519 521 522 521 523 523 523 525 524 524 527 527 529 526 527 529 529 528 530 531 528 529 532 531 532 532 534 534 534 534 536 537 536 538 539 538 540 541 539 538 540 543 547 548 546 547 546 546 546 545 546 544 544 546 548 548 546 548 552 550 551 552 549 552 550 552 555 554 555 554 551 551 553 553 554 556 558 560 560 560 561 560 561 560 560 561 562 562 563 562 567 567 567 569 568 569 571 569 567 569 571 572 572 573 573 575 575 576 577 577 578 579 581 581 583 583 584 584 587 588 589 590 591 593 592 595 599 600 599 599 601 602 603 606 606 606 610 611 614 619 622 625 627 623 626 626 628 629 631 633 635 637 640 642 645 647 648 651 655 657 660 663 664 665 669 672 673 678 681 685 686 689 694 699 701 705 708 713 719 723 725 728 733 737 741 746 751 755 762 767 773 781 787 796 802 812 820 827 837 848 866 888 899 914 936 950 958 961 971 993 1028 1059 1083 1112 1150 1180 1204 1222 1247 1268
467 467 467 468 466 468 468 470 469 471 471 473 475 481 500 519 529 540 566 589 571 528 512 518 515 490 461 454 455 454 455 456 457 457 457 456 455 458 459 458 458 459 461 462 464 463 462 465 466 468 469 469 465 463 464 464 465 465 464 465 464 465 467 466 467 468 468 469 469 469 470 470 472 471 470 470 471 471 472 472 473 474 474 475 475 476 476 476 477 478 478 479 479 478 479 481 481 481 484 483 484 484 484 486 486 483 484 484 486 485 484 485 484 485 487 487 488 490 492 490 489 490 492 490 491 493 495 497 498 496 494 495 494 495 493 490 486 479 476 479 484 486 489 492 492 491 492 494 501 505 506 506 507 508 509 509 508 508 509 509 510 510 514 514 515 516 516 516 515 517 517 515 515 517 519 520 521 522 521 522 522 523 523 525 525 524 526 528 528 529 528 527 529 529 529 530 527 528 532 532 534 533 535 537 538 536 536 536 537 539 540 540 541 541 542 540 542 546 549 545 543 544 544 548 547 546 548 546 546 548 549 549 550 550 551 551 549 549 552 553 552 551 554 552 556 554 555 555 555 556 553 555 555 558 560 560 559 561 562 561 561 560 561 563 562 563 566 566 567 570 568 568 569 569 570 570 571 572 573 573 572 574 574 574 576 576 579 579 579 580 581 583 583 585 587 586 589 589 591 593 594 597 599 600 599 599 600 602 603 605 606 609 610 612 614 616 616 619 623 629 630 632 633 631 633 634 637 638 640 642 645 648 649 652 654 656 660 663 664 665 670 674 675 678 682 685 688 692 696 700 703 707 710 715 720 728 730 732 736 738 742 749 755 759 764 770 775 781 788 796 804 813 822 832 842 851 870 894 907 923 939 953 961 965 974 984 1001 1029 1055 1088 1124 1167 1195 1213 1237 1250
465 466 468 467 465 465 466 468 468 469 470 472 475 476 483 493 497 507 528 553 562 565 569 571 553 514 471 456 454 456 454 455 455 456 457 457 456 457 456 457 457 458 459 464 467 466 461 461 462 463 467 465 465 464 465 465 466 463 464 465 465 465 466 467 467 466 468 469 469 470 471 470 470 470 473 471 471 473 472 471 472 472 473 474 474 475 476 476 477 478 478 477 478 479 479 479 481 482 482 483 484 484 483 483 482 483 485 483 483 482 483 485 486 486 485 487 488 490 490 488 491 491 492 493 495 498 497 497 495 496 498 499 501 500 500 498 493 483 475 480 492 493 492 492 496 499 505 505 505 506 506 506 507 509 510 509 510 511 512 513 513 514 513 514 514 514 519 521 521 518 519 519 515 516 518 520 520 520 521 523 524 524 524 527 526 527 526 527 527 528 529 530 531 532 532 531 529 529 533 534 533 534 535 537 539 536 537 538 537 538 538 540 540 540 541 541 543 545 546 543 543 543 543 544 544 547 551 547 548 548 549 550 549 549 549 552 550 551 553 552 552 554 552 550 551 558 556 558 557 556 555 556 555 557 559 561 561 560 561 560 562 563 564 562 563 566 566 565 565 566 566 568 568 568 569 569 570 572 573 573 573 574 576 575 574 575 580 583 582 582 583 583 584 585 586 587 590 591 591 593 595 596 599 599 599 601 604 604 605 606 608 609 611 612 614 616 618 619 620 623 625 630 633 635 638 638 637 638 641 643 646 648 651 653 655 657 661 664 666 669 672 676 678 680 684 687 691 694 699 702 706 711 714 718 723 727 732 736 740 744 748 751 758 763 767 773 780 785 792 801 806 813 820 831 843 854 873 898 917 933 948 960 966 972 976 983 998 1017 1044 1077 1128 1170 1194 1214 1216 1209
464 466 465 466 464 465 466 469 468 468 470 472 473 474 478 485 491 502 515 533 565 597 618 613 579 532 491 465 455 454 453 454 455 457 458 457 458 457 457 457 456 457 460 462 465 465 461 460 461 461 464 464 463 462 463 463 465 465 465 467 465 465 466 466 466 466 468 470 469 470 468 469 469 469 471 471 470 472 472 473 474 472 473 474 475 475 476 476 476 477 478 478 478 477 478 478 480 482 483 483 484 486 483 482 482 483 482 484 486 484 483 486 488 486 485 488 490 489 489 492 496 492 492 494 499 507 508 506 501 502 502 503 503 501 502 500 498 485 477 484 496 499 500 498 505 506 507 506 506 506 507 506 507 510 509 508 509 511 513 514 515 514 513 514 511 513 517 522 523 518 511 515 514 517 519 519 520 521 523 523 524 523 524 525 526 528 528 528 527 527 529 530 531 531 533 531 530 532 535 534 534 535 534 534 537 535 537 538 538 539 540 538 541 541 543 543 544 544 544 545 545 546 546 546 545 546 549 549 549 547 547 548 551 550 549 550 549 551 552 551 552 555 554 552 554 557 557 559 558 556 557 557 558 558 558 561 561 560 561 561 562 563 563 563 565 566 565 564 562 564 566 568 568 568 569 569 572 573 572 573 574 574 574 576 577 577 579 580 580 583 584 582 583 585 587 587 588 592 592 593 594 595 597 599 598 599 602 602 606 611 610 610 612 612 615 616 618 619 619 620 626 628 630 632 635 641 643 643 645 645 647 649 652 655 657 659 662 665 667 670 674 675 679 683 686 690 693 697 702 704 710 714 717 721 725 729 734 738 745 749 752 756 759 767 770 775 782 787 794 803 809 815 822 833 845 862 883 905 920 935 948 960 970 978 986 998 1008 1018 1047 1086 1133 1174 1191 1199 1184 1178
465 464 464 465 468 463 467 468 467 468 470 471 472 474 478 484 493 506 521 537 572 614 655 637 603 546 505 480 463 455 454 455 454 455 457 456 456 456 456 457 457 459 460 461 462 462 462 460 461 462 462 463 462 461 462 463 463 464 465 466 467 467 466 466 465 465 467 469 471 470 469 469 469 468 470 470 471 471 472 472 473 474 475 475 476 474 474 476 477 478 478 478 479 479 478 478 480 483 484 483 482 483 481 484 485 485 484 483 485 484 484 485 485 487 486 489 490 489 489 490 494 498 502 504 508 508 510 510 508 509 508 506 504 505 503 502 503 498 497 498 502 503 503 504 505 506 506 506 504 507 507 508 508 509 512 511 511 511 512 514 514 513 516 518 513 514 516 512 511 514 505 512 517 520 520 520 521 521 523 524 524 526 525 526 526 528 528 529 529 529 531 531 529 527 530 528 531 534 534 534 534 536 537 537 536 537 537 538 540 540 542 540 541 543 543 542 542 544 546 546 546 547 547 548 547 547 547 550 547 546 546 547 548 550 551 553 552 552 553 554 555 554 552 554 556 556 559 560 560 555 557 558 558 559 560 561 561 562 563 562 562 564 563 564 566 567 567 566 565 566 566 568 570 569 571 570 571 572 571 571 572 574 573 576 578 578 578 579 580 584 583 581 584 586 586 587 587 590 592 592 592 595 597 597 598 600 603 604 605 608 611 615 617 616 616 616 618 621 622 622 625 629 630 631 632 636 638 641 646 645 647 649 652 654 656 661 663 666 670 672 676 679 680 684 688 694 695 700 703 708 713 716 719 725 727 734 737 744 749 753 756 762 764 770 774 779 785 791 797 808 813 820 828 834 848 871 890 910 924 937 948 963 973 981 993 1002 1011 1025 1051 1090 1132 1156 1163 1163 1154 1176
463 464 465 464 466 465 465 466 468 470 470 471 471 473 477 482 491 506 530 554 588 623 664 650 615 576 530 511 499 474 458 455 455 455 456 457 457 458 459 458 457 459 460 459 460 460 462 461 461 462 462 461 461 461 464 463 464 464 464 464 465 466 466 467 466 466 466 468 469 469 469 470 470 469 470 471 472 472 471 472 474 474 473 474 475 475 475 475 477 476 477 477 479 479 480 478 479 481 482 483 480 479 482 484 486 485 483 484 483 482 484 486 484 485 488 487 488 489 489 490 500 508 507 510 509 508 510 509 510 509 510 508 506 505 503 503 501 502 502 502 502 503 503 505 504 507 507 507 508 509 509 509 510 510 512 512 512 512 513 515 515 514 516 515 514 516 516 506 507 509 505 518 518 520 520 521 521 523 525 525 525 525 526 526 526 528 530 530 528 530 532 532 530 527 530 529 530 533 534 534 535 535 537 538 537 538 539 538 540 541 541 542 543 543 542 544 545 547 547 548 548 546 547 548 548 549 546 547 549 548 549 552 553 551 552 554 554 553 555 556 555 556 554 556 556 556 558 558 558 556 557 558 558 558 558 560 562 562 562 562 562 562 561 563 566 568 567 567 566 566 567 569 570 570 572 573 571 572 572 572 574 574 575 576 577 577 577 579 579 581 582 582 584 585 587 587 589 592 592 593 594 595 596 599 599 600 602 605 605 607 607 611 613 617 621 622 621 620 622 625 627 629 630 632 634 637 638 641 644 646 646 649 652 655 660 660 663 667 670 672 676 679 682 686 690 695 698 701 707 710 715 717 722 727 732 736 739 745 751 757 762 765 768 776 780 786 791 796 800 809 817 827 835 842 852 876 901 916 925 934 946 960 974 986 996 1006 1018 1026 1044 1071 1095 1111 1111 1120 1140 1163
464 467 467 466 467 465 465 464 468 471 470 469 470 471 473 478 484 496 524 557 598 628 633 616 590 569 549 540 531 500 475 461 456 456 457 457 456 457 457 457 457 458 459 458 459 459 460 460 462 462 462 462 462 464 462 462 463 464 465 466 465 466 465 465 467 467 468 467 468 469 469 471 471 469 469 471 471 471 472 473 474 475 474 474 475 475 475 474 476 476 477 478 478 477 479 479 480 483 482 481 478 479 481 484 486 483 483 485 485 485 481 485 483 485 486 486 487 488 489 492 501 504 502 505 506 506 507 506 503 503 506 509 509 507 505 505 505 502 502 502 502 502 505 505 506 508 510 509 508 508 509 510 511 511 511 512 513 513 515 517 516 516 514 514 515 520 516 516 512 509 515 519 519 518 521 522 522 525 525 524 525 525 526 526 527 527 530 531 531 531 531 531 529 527 529 530 533 534 534 534 535 536 538 538 538 540 540 540 539 541 542 541 543 546 545 545 545 549 548 549 548 546 548 549 547 549 549 549 551 552 552 554 553 554 554 552 553 555 555 557 556 556 557 557 556 557 559 559 560 559 559 558 558 558 558 560 562 561 562 561 563 563 562 564 563 567 568 568 566 566 567 570 570 570 570 573 573 573 572 572 575 575 575 576 576 577 577 578 581 581 582 582 584 585 586 588 587 590 593 594 597 598 598 599 598 600 603 604 605 607 609 610 612 614 617 619 622 623 628 626 629 629 631 632 633 637 639 641 643 646 647 650 653 655 661 661 663 666 669 673 678 678 684 686 691 698 701 704 710 712 715 720 727 731 735 741 744 747 753 760 765 769 774 778 782 787 794 798 808 817 821 831 840 850 858 878 902 914 922 931 942 953 964 977 990 1002 1013 1028 1044 1052 1073 1089 1111 1136 1165 1190
463 467 467 464 464 464 463 465 468 469 470 470 472 474 476 480 489 498 514 550 595 611 582 558 535 521 508 505 494 479 473 469 460 455 456 455 455 457 457 457 459 459 459 460 459 459 459 460 462 463 463 463 463 463 462 461 463 464 464 464 466 466 465 467 467 467 468 467 467 467 468 469 470 471 470 471 471 471 473 473 474 474 475 475 475 477 475 476 477 477 477 477 477 477 478 480 481 482 479 483 481 479 483 481 481 482 484 486 485 485 484 485 485 485 486 487 487 489 494 496 500 498 498 499 503 501 500 500 499 503 506 509 510 506 506 505 506 504 505 505 506 506 507 507 506 508 509 509 508 509 511 513 513 512 512 513 513 513 516 517 517 516 517 520 524 526 536 528 516 522 522 522 520 520 522 521 522 523 526 525 525 526 526 527 527 529 530 530 530 533 533 533 532 532 531 532 535 534 535 536 537 537 538 538 541 541 541 541 540 545 543 542 542 545 544 545 546 547 546 548 549 547 549 551 548 549 549 550 550 551 552 553 552 553 553 553 554 556 556 556 557 556 556 559 558 558 558 561 561 560 559 560 560 559 560 560 562 563 564 564 562 564 565 564 564 565 567 568 569 567 566 568 570 569 570 571 572 573 572 573 573 573 576 577 577 577 578 579 580 581 582 583 584 586 587 588 590 590 592 594 596 599 599 601 601 601 603 604 605 607 609 611 612 615 617 618 619 621 625 632 630 629 630 633 634 637 639 642 644 645 648 651 654 657 660 663 665 667 670 675 680 681 685 690 693 697 701 706 712 716 719 724 730 734 738 741 747 753 756 762 768 772 782 785 787 789 795 801 812 824 828 833 844 854 863 874 890 903 914 924 936 949 964 979 993 1006 1021 1036 1047 1066 1088 1106 1131 1166 1203 1232
463 468 464 461 464 466 466 467 467 467 471 472 470 474 475 480 496 517 537 558 585 580 539 509 487 473 465 462 458 456 456 456 457 456 456 456 456 455 456 457 458 457 457 459 460 459 458 460 462 461 462 461 461 463 463 461 464 463 464 463 464 464 467 467 467 468 468 468 467 466 468 468 471 471 471 470 471 471 473 474 474 476 476 476 476 475 474 476 476 477 478 477 477 478 477 477 480 479 479 481 483 483 480 480 482 482 482 483 482 484 485 485 484 484 484 486 486 485 491 497 497 496 496 494 494 496 496 495 496 501 505 506 508 508 511 507 508 510 508 509 509 507 508 509 508 506 509 510 509 509 511 511 512 512 513 514 514 515 517 514 516 517 519 514 521 523 524 521 519 518 517 520 520 521 524 524 522 525 524 526 527 525 525 526 528 528 529 530 531 533 533 532 534 534 535 534 536 534 536 536 536 537 538 539 540 539 542 542 544 545 543 546 546 545 546 547 547 549 549 551 552 549 549 549 549 550 551 551 552 552 551 552 553 555 554 555 554 556 555 555 557 557 558 557 558 558 558 557 559 558 559 559 562 562 560 564 562 563 565 565 564 565 565 565 566 567 567 568 567 569 568 567 569 569 569 570 570 570 572 574 574 574 576 575 577 577 579 581 581 581 582 583 584 585 586 587 590 590 592 595 596 596 599 602 604 604 604 604 605 607 609 611 613 616 617 618 619 623 627 633 629 629 631 633 636 638 639 641 645 646 650 653 656 658 660 662 666 669 673 677 680 684 687 691 695 699 702 707 712 716 722 726 732 738 740 745 750 755 761 766 771 776 783 789 794 795 798 804 814 823 829 835 840 851 861 875 889 902 913 923 931 946 962 976 994 1006 1020 1035 1049 1071 1093 1122 1145 1176 1217 1257
464 468 464 461 463 465 465 465 466 469 472 474 474 478 480 492 517 550 561 557 550 538 510 475 458 456 455 452 453 454 452 452 452 454 456 455 456 454 454 456 457 457 459 459 460 459 457 460 459 460 461 462 462 463 464 463 466 466 464 467 467 466 466 466 465 466 467 468 467 468 469 468 469 473 473 471 470 469 472 473 474 474 475 475 476 475 475 476 476 475 476 476 478 479 480 479 478 479 478 478 481 482 482 481 480 483 483 485 485 484 484 485 485 486 484 484 486 485 485 491 493 489 491 492 492 493 495 498 500 502 504 505 507 512 513 510 508 509 510 512 510 508 508 508 509 508 507 509 508 508 512 512 511 512 513 514 514 515 515 514 516 516 526 520 519 522 521 519 519 518 518 521 521 524 524 525 523 525 525 526 527 524 526 528 528 529 530 531 530 533 533 534 534 536 536 536 535 536 536 534 537 537 538 541 540 542 543 544 543 544 544 546 547 545 546 546 549 548 549 550 550 549 549 549 549 551 551 553 553 552 553 553 554 555 554 555 556 557 556 555 557 557 558 559 559 558 557 559 563 565 563 560 562 562 560 560 562 565 565 565 567 566 564 564 567 567 570 570 568 570 569 571 570 571 571 571 571 570 571 573 575 575 576 577 577 577 579 580 580 580 582 582 584 586 587 587 590 592 593 594 597 597 599 601 603 604 607 612 611 610 611 612 613 615 618 619 620 623 629 627 629 631 632 634 636 638 640 643 645 647 651 654 656 658 661 664 666 670 674 681 683 688 690 693 697 703 707 711 715 718 723 727 734 741 745 748 753 758 764 769 775 780 785 789 795 801 805 812 820 825 832 837 840 851 862 880 891 900 907 913 928 944 961 981 999 1008 1023 1040 1053 1075 1114 1147 1178 1210 1248 1279
461 464 462 463 464 464 464 469 470 471 474 474 478 485 490 503 530 555 549 521 498 479 469 454 450 454 454 451 453 453 453 453 454 453 454 455 456 457 456 457 456 455 455 456 457 458 458 458 458 459 462 460 460 461 463 464 464 463 465 466 464 467 466 463 464 465 467 466 466 467 469 468 469 470 471 471 469 470 472 472 473 474 474 474 475 476 476 476 476 475 476 477 479 480 479 479 478 479 480 480 482 482 482 482 482 482 484 486 486 487 487 489 487 486 483 484 484 484 482 482 485 485 488 490 491 495 498 500 502 503 503 505 508 510 512 511 510 512 512 511 510 510 511 511 511 511 509 507 508 510 513 513 513 513 513 516 517 516 517 516 515 512 522 517 518 519 520 520 519 521 521 523 522 524 524 524 523 526 526 526 528 527 529 530 531 532 531 530 532 534 533 533 535 536 536 538 536 538 543 542 538 537 539 540 539 540 543 543 544 545 544 548 548 549 548 548 548 550 549 549 549 549 551 551 552 552 552 551 552 553 555 555 554 554 554 555 555 557 557 558 558 556 557 558 559 559 559 561 562 564 565 561 561 562 563 561 563 567 566 566 566 566 566 567 567 567 571 569 566 568 568 572 571 570 571 570 572 572 573 574 574 577 575 576 577 580 581 579 580 581 582 584 586 589 588 588 590 592 594 595 595 597 600 601 604 604 610 611 613 617 616 615 616 615 618 620 623 628 630 629 632 635 636 636 637 640 642 644 648 650 651 655 655 659 663 665 668 674 676 680 685 689 694 697 702 705 709 715 719 724 726 729 736 743 749 753 760 764 767 772 780 786 790 795 798 802 811 820 826 827 836 838 843 851 861 876 887 895 902 908 933 957 971 984 1004 1018 1028 1046 1063 1086 1122 1167 1208 1246 1280 1315
459 462 462 461 461 464 464 470 470 474 478 478 488 506 514 521 542 553 527 492 464 453 452 449 449 453 451 451 449 451 453 453 452 451 454 456 455 456 457 459 459 455 455 453 455 457 457 458 458 459 460 460 459 461 462 462 463 463 464 464 464 465 465 464 466 467 467 467 468 469 470 468 469 470 469 469 471 471 470 473 474 473 475 474 474 475 476 476 478 477 478 480 480 479 477 476 478 479 481 480 481 482 483 483 483 483 485 485 488 489 489 489 489 487 486 487 485 483 485 484 484 484 485 487 489 491 495 496 498 500 502 504 508 511 511 514 513 514 514 514 514 515 512 513 512 513 512 509 511 510 512 513 514 515 515 517 516 518 513 513 509 517 519 512 518 518 519 521 527 527 522 524 522 523 525 525 524 526 528 527 529 529 530 532 529 532 533 533 533 534 534 534 533 535 536 538 538 538 541 539 538 537 540 541 541 542 542 542 543 545 545 545 549 550 550 549 549 550 549 550 551 550 551 552 551 552 552 552 553 553 555 554 553 555 556 556 556 558 556 557 558 557 558 559 560 560 560 561 562 563 562 563 564 566 564 565 565 568 570 566 565 567 567 568 568 568 568 568 568 569 569 571 571 570 570 571 572 573 574 575 575 577 577 577 578 579 580 580 581 582 583 585 586 587 589 589 591 591 592 594 596 598 598 600 601 602 609 612 610 616 615 615 620 620 623 624 633 633 633 635 633 633 638 641 639 638 641 645 648 650 651 655 657 658 662 667 668 674 678 683 686 689 693 699 703 707 711 716 722 730 729 734 740 746 750 755 761 767 774 778 781 788 793 797 802 809 813 818 826 833 838 842 846 854 863 872 880 890 905 910 924 960 984 995 1008 1025 1032 1048 1070 1094 1128 1162 1205 1253 1296 1330
459 459 458 461 462 464 464 465 469 479 486 483 492 514 532 537 541 532 502 471 455 450 449 450 451 451 452 453 452 452 453 453 452 452 452 454 454 454 456 458 457 456 458 455 456 455 454 455 459 459 460 460 460 464 462 463 463 464 464 465 463 462 462 465 465 465 468 466 468 470 469 464 466 468 470 470 472 471 469 470 472 473 474 474 475 475 475 477 478 480 484 482 478 477 476 475 478 480 483 482 481 483 485 484 484 483 483 486 487 488 490 492 490 491 490 492 490 490 489 492 494 492 489 489 490 490 489 490 494 496 500 503 504 507 511 514 516 517 516 514 516 515 512 514 514 516 512 511 511 510 511 511 512 516 515 519 518 514 512 508 514 506 515 514 518 518 519 523 526 528 524 526 524 525 526 526 527 526 528 527 528 529 531 531 531 531 533 533 534 535 536 536 533 534 536 538 539 539 538 539 541 541 540 542 541 542 542 543 544 545 547 547 548 548 548 549 550 551 549 551 553 552 552 553 553 552 552 553 555 554 554 554 554 554 556 555 557 557 558 558 559 559 561 560 558 559 560 562 562 564 562 561 563 564 564 565 565 566 566 566 566 567 568 569 568 568 569 567 568 570 570 571 572 571 572 573 573 575 576 576 578 581 579 578 581 581 582 582 582 583 583 584 585 586 585 589 591 593 594 595 598 598 599 601 602 604 609 612 615 617 613 613 620 620 622 624 632 632 635 639 638 633 636 645 643 642 643 645 648 649 652 655 657 660 663 668 671 674 679 684 686 692 698 700 705 709 714 719 726 730 734 738 743 747 752 757 762 768 777 784 787 793 797 802 807 811 818 823 829 837 842 847 852 855 863 871 878 885 896 905 918 947 983 1011 1017 1026 1037 1051 1073 1101 1143 1177 1213 1254 1293 1317
458 457 455 461 466 465 462 463 468 479 495 502 501 505 503 506 512 511 487 458 455 449 450 451 450 450 452 454 451 453 453 453 454 453 451 454 455 457 457 458 457 456 458 457 458 458 455 455 456 457 460 459 461 461 461 462 462 464 464 465 466 463 462 462 465 464 465 465 467 466 466 466 468 469 471 472 470 471 471 472 475 472 473 474 475 477 477 476 476 479 484 483 483 483 480 481 482 483 485 484 482 484 485 484 484 485 485 486 487 488 490 492 493 490 490 488 492 493 495 494 496 497 495 493 493 493 490 488 490 491 494 498 500 499 501 505 510 512 515 517 517 516 515 516 516 515 513 512 511 511 512 511 514 518 516 517 521 517 518 515 513 512 515 517 520 518 519 523 526 525 525 525 526 526 527 526 527 526 527 528 527 530 531 532 531 531 532 534 534 534 536 536 536 536 536 538 538 540 538 538 540 541 539 541 542 544 543 545 546 544 546 547 548 549 550 550 551 550 550 551 552 554 555 554 552 553 555 554 554 554 555 555 555 556 559 558 558 558 559 559 561 561 562 563 559 562 562 563 564 563 565 564 563 564 565 566 567 569 568 568 569 568 568 571 569 568 568 568 567 569 571 572 573 572 570 572 573 575 575 576 575 580 580 580 580 581 582 581 581 582 585 585 585 586 586 589 590 593 596 599 600 603 601 600 603 605 607 608 612 614 613 617 621 624 624 629 633 634 635 638 639 637 643 646 648 644 645 644 647 650 652 655 658 660 664 669 672 675 679 684 688 693 697 700 704 710 717 723 729 730 734 738 744 749 756 760 766 771 778 786 792 798 803 808 813 818 824 829 834 840 845 851 855 861 866 872 879 887 890 901 917 949 993 1022 1031 1032 1040 1051 1068 1094 1126 1161 1202 1243 1273 1292
460 458 461 460 464 462 460 462 466 475 493 510 503 488 477 473 479 485 478 461 455 452 451 450 450 451 451 450 453 454 454 454 455 455 454 454 455 457 457 458 456 456 458 457 458 459 458 457 458 456 458 458 458 459 462 463 460 462 462 464 464 464 463 464 465 466 465 464 466 469 469 468 467 470 471 472 471 473 475 474 474 473 476 476 477 477 477 475 477 479 481 484 488 487 485 483 482 481 482 482 482 483 483 482 484 486 487 486 486 489 489 489 491 492 491 490 493 493 496 497 497 497 498 499 498 496 493 492 495 496 497 500 503 505 509 504 503 507 514 518 518 516 516 519 519 517 515 514 515 515 513 513 515 517 521 531 519 514 520 518 519 524 520 519 518 518 520 525 525 523 523 525 524 527 527 527 528 527 528 529 529 531 532 534 532 532 535 536 535 535 537 536 536 537 538 539 540 538 540 540 541 541 540 542 544 544 548 548 545 545 548 549 549 550 550 549 550 550 553 551 551 554 554 553 554 555 555 556 555 556 556 556 556 557 558 558 557 558 559 561 561 561 561 561 563 563 562 562 563 565 565 565 566 565 565 566 567 569 570 569 569 570 571 571 571 570 570 569 571 571 570 573 573 573 571 571 574 575 574 575 576 577 580 580 581 581 581 582 581 583 583 583 585 586 588 589 591 593 595 596 599 601 598 602 603 606 607 608 610 610 613 619 621 620 626 629 628 634 637 639 640 644 645 650 654 645 647 649 648 651 654 655 657 662 665 668 671 676 682 685 689 693 698 701 705 710 716 721 727 731 736 741 746 752 759 764 770 775 780 787 793 799 806 812 817 826 829 832 839 845 851 856 861 867 873 877 883 890 894 901 917 954 998 1029 1045 1048 1050 1054 1063 1084 1109 1139 1180 1216 1237 1255
460 460 457 458 461 460 458 456 459 471 486 497 490 477 465 461 459 462 459 453 449 449 451 450 451 453 453 451 452 453 455 455 455 456 455 455 456 456 455 457 458 457 457 457 457 458 459 461 460 457 456 456 459 461 463 461 462 462 461 464 464 463 463 464 466 465 465 466 466 468 469 468 468 470 469 470 474 474 474 474 473 475 476 476 476 476 478 476 479 479 481 480 480 482 481 480 480 482 481 483 483 484 484 484 482 486 487 487 486 487 488 487 489 492 494 494 495 495 498 497 498 499 498 501 499 494 491 498 500 503 507 506 511 513 514 513 510 507 503 508 512 516 518 518 521 520 519 514 514 514 515 514 516 515 523 529 509 515 522 516 514 519 520 518 520 526 519 522 522 522 523 525 526 526 528 530 529 530 531 529 530 531 532 532 531 534 535 535 535 536 537 536 537 538 539 540 541 540 542 542 543 542 542 546 544 545 548 547 546 548 548 548 549 550 551 551 552 552 553 553 553 554 553 554 555 556 556 556 557 557 556 558 557 558 560 559 559 559 561 561 561 561 561 562 562 562 563 564 563 565 565 566 566 566 569 569 568 570 571 573 571 571 571 572 572 571 573 572 574 575 574 572 574 574 574 574 574 575 575 577 577 577 579 580 581 583 581 582 581 584 582 583 585 587 590 590 591 592 595 596 598 601 600 605 604 606 607 607 610 612 614 615 619 625 631 627 630 635 635 638 644 647 649 652 649 646 651 654 651 652 654 658 661 663 666 669 672 679 687 687 691 696 699 705 706 709 715 722 730 731 735 743 748 753 757 765 772 778 783 789 795 801 809 813 820 829 833 838 842 848 853 861 868 875 881 885 891 897 902 909 925 957 998 1032 1056 1065 1068 1073 1075 1082 1095 1118 1151 1179 1193 1207
461 460 459 458 459 459 460 461 459 470 482 483 477 468 458 455 453 455 453 447 448 451 452 453 454 452 452 453 455 453 453 453 456 456 454 455 454 455 457 458 456 459 457 456 456 458 458 459 459 459 459 456 458 461 461 462 461 463 463 461 462 461 462 465 465 468 468 468 468 468 469 469 470 470 469 471 473 472 472 472 473 474 475 475 477 476 478 479 480 481 482 480 480 481 481 482 482 484 485 485 485 486 486 486 487 487 488 490 488 487 488 489 490 492 495 496 496 495 497 499 499 500 501 502 502 498 494 494 498 504 507 510 512 513 516 517 518 516 510 509 508 514 517 518 522 524 524 517 514 516 514 515 515 523 534 517 511 517 521 522 518 518 519 520 521 524 517 520 522 524 525 525 526 528 528 529 530 530 530 532 532 533 533 533 534 533 534 535 536 538 539 538 538 541 542 540 541 541 542 542 543 543 543 544 544 546 548 546 548 549 548 549 549 550 555 553 553 553 554 554 553 554 554 554 556 557 557 557 557 558 559 559 558 558 559 560 560 559 560 561 562 563 562 563 565 565 564 563 565 566 566 568 567 567 568 568 568 570 572 573 573 573 571 569 572 576 575 575 577 576 574 573 573 575 577 576 575 576 574 577 578 579 580 581 584 584 583 582 583 585 585 583 585 587 590 591 591 593 596 596 597 601 605 607 602 604 607 607 609 611 613 615 620 628 631 634 637 638 636 642 644 647 648 651 645 647 655 655 652 654 655 659 661 665 667 670 673 679 685 687 690 694 698 705 710 720 728 727 729 732 738 743 748 756 761 768 775 781 785 792 797 802 809 815 822 830 835 840 848 853 858 865 872 876 882 890 897 905 908 917 928 950 991 1027 1051 1071 1082 1088 1094 1098 1103 1112 1127 1145 1162 1175
462 462 461 459 460 459 460 462 461 465 472 468 462 456 451 453 454 453 449 448 450 453 453 452 453 454 452 452 453 453 453 453 452 453 454 454 455 455 456 458 457 456 457 457 458 458 458 458 458 459 460 459 460 461 460 459 458 459 461 461 463 465 466 468 466 467 465 467 467 467 469 468 470 471 470 472 472 473 472 472 475 474 473 474 476 477 479 480 480 481 482 482 481 483 481 482 481 483 486 487 488 489 489 488 488 486 487 489 488 489 489 489 490 490 494 497 497 499 498 499 501 500 502 504 503 500 500 499 496 500 504 508 509 513 515 517 519 518 518 516 510 511 516 517 519 521 522 519 520 517 517 516 517 527 533 522 513 517 510 514 518 519 519 520 518 520 522 520 524 525 524 525 526 528 529 531 532 531 531 532 533 533 533 533 535 535 535 535 538 538 537 538 539 541 540 540 541 542 542 542 543 543 544 545 544 543 544 546 549 550 548 551 551 550 553 553 554 553 554 554 553 555 555 555 558 559 557 558 559 559 560 560 559 560 560 560 561 561 562 562 564 565 564 564 563 564 565 566 567 567 567 568 569 569 568 568 569 570 571 574 573 575 573 572 574 575 578 578 577 575 576 576 576 575 577 577 577 577 577 578 578 578 579 582 583 585 585 585 583 584 586 587 587 586 589 592 595 595 595 595 599 600 602 602 603 606 605 604 607 613 615 619 623 627 627 629 633 636 639 639 636 647 648 649 649 654 656 655 654 656 658 660 662 664 666 671 675 681 682 686 690 694 701 706 709 718 728 730 730 733 739 746 752 756 762 769 775 781 788 794 798 806 811 816 822 831 838 842 849 855 863 871 876 881 888 894 902 907 913 921 928 943 978 1015 1048 1071 1083 1091 1093 1098 1110 1117 1120 1135 1145 1154
462 462 461 460 459 462 460 461 462 461 460 455 453 452 453 454 452 449 448 451 451 453 452 453 452 453 453 453 451 452 453 453 453 454 455 454 455 456 457 457 458 457 456 456 456 458 458 457 458 458 459 459 463 462 462 461 462 461 465 464 464 463 465 463 463 463 466 466 468 468 468 468 470 470 471 472 472 472 474 474 474 475 476 477 477 477 480 481 482 481 482 482 481 482 483 482 483 484 484 486 486 489 490 490 491 489 489 491 489 489 491 491 491 490 493 496 500 500 499 501 498 500 504 503 504 507 505 506 501 501 504 507 509 511 514 515 517 517 518 518 516 513 515 515 519 522 522 517 515 515 517 516 519 534 521 518 519 518 515 517 517 516 518 520 520 522 524 525 527 526 526 528 527 528 529 530 530 531 532 532 533 533 533 534 534 535 535 535 538 537 538 538 540 541 541 540 542 543 544 543 544 547 545 545 545 546 545 547 548 547 550 552 551 551 552 555 555 553 556 555 554 556 556 559 558 558 558 559 559 559 560 561 561 561 560 562 562 564 562 564 562 564 565 565 565 565 567 566 566 568 567 570 569 569 570 570 572 572 572 574 574 575 577 577 577 576 577 577 579 579 579 580 577 575 576 577 578 577 578 578 581 580 579 581 583 584 585 585 585 586 587 587 587 587 589 592 594 595 595 596 599 601 601 603 603 606 607 608 609 613 618 621 622 622 626 628 629 629 635 640 640 643 645 649 648 648 654 653 653 657 659 662 664 667 668 670 674 679 683 686 690 696 703 706 710 715 726 734 734 736 740 746 751 757 765 770 776 783 788 794 801 809 814 818 825 833 839 846 852 859 867 873 880 888 894 898 903 911 917 929 939 949 969 999 1027 1052 1072 1081 1088 1097 1104 1109 1112 1117 1118 1116
461 463 462 460 460 460 457 458 457 458 461 453 450 456 452 450 448 448 449 451 451 453 452 452 452 451 452 452 453 455 453 452 453 454 455 454 455 456 457 458 457 457 456 457 456 457 458 458 459 458 459 457 459 461 463 465 463 463 462 463 462 462 463 463 462 463 465 467 467 468 468 468 468 470 471 472 472 471 473 475 473 476 478 478 478 477 479 480 482 484 485 481 481 482 483 482 486 487 487 486 487 487 487 490 493 492 491 490 490 491 492 492 491 491 493 496 497 498 501 502 501 503 504 504 505 508 508 511 511 505 507 509 512 512 513 515 516 517 517 518 518 515 516 518 519 521 518 516 517 520 514 518 524 517 517 517 514 517 517 518 519 519 518 521 522 524 527 525 526 526 527 528 528 530 529 528 531 531 532 532 533 533 532 533 535 535 535 536 537 537 538 540 542 542 539 542 542 543 544 543 547 548 545 546 546 546 546 548 548 549 550 552 551 552 553 556 556 555 557 558 558 559 559 560 560 558 559 558 559 560 560 563 564 563 562 565 564 564 565 564 564 565 564 566 566 565 567 568 567 567 568 570 571 570 572 570 572 572 572 573 576 576 577 578 578 577 577 576 578 583 579 579 574 576 577 577 576 577 579 579 580 580 581 582 583 585 585 586 588 588 587 587 589 588 589 593 594 594 596 596 597 600 601 604 603 605 608 611 612 614 617 618 622 622 626 628 632 631 633 635 636 640 641 643 645 648 651 655 660 663 664 665 667 669 671 673 675 679 682 687 692 699 702 705 710 716 730 738 734 738 740 746 752 760 767 773 777 783 790 795 801 810 817 821 829 837 843 850 855 863 868 874 880 887 896 904 910 916 922 932 941 953 968 981 1009 1038 1058 1069 1076 1080 1083 1077 1072 1070 1072 1073
456 458 459 459 459 458 454 454 459 458 454 450 452 452 452 452 450 449 449 451 453 453 451 451 452 452 452 453 453 454 453 452 453 455 454 454 454 455 457 457 456 455 454 456 456 456 457 457 457 457 458 458 459 460 460 462 461 460 459 461 460 462 463 464 463 466 466 465 467 468 468 468 469 470 470 472 474 473 473 474 474 476 475 477 477 478 480 479 482 483 483 482 483 483 482 484 486 486 487 486 487 488 487 489 491 491 492 491 491 492 493 493 493 492 494 493 494 497 501 502 502 503 504 506 507 509 510 511 511 510 509 509 509 510 512 513 514 515 516 516 520 520 517 518 519 518 519 519 517 517 516 520 520 511 520 512 510 515 520 519 520 520 521 521 524 524 525 526 527 526 527 527 527 529 529 529 531 531 532 534 535 535 534 535 537 536 536 536 537 539 540 541 541 543 542 543 544 544 543 542 546 546 548 549 547 548 549 549 550 552 552 551 551 552 554 555 555 554 555 558 559 560 561 563 562 559 559 559 559 560 562 562 562 563 563 564 565 564 566 565 565 565 565 565 566 566 567 567 568 568 569 570 571 571 571 571 573 573 575 575 575 577 578 577 576 576 576 577 583 582 578 578 576 577 576 579 579 578 579 580 581 581 581 582 583 583 585 586 587 588 588 588 587 590 590 592 598 598 596 598 601 601 601 602 605 606 610 612 620 619 618 619 620 622 623 628 629 630 632 636 636 639 642 644 645 648 651 659 660 661 664 666 669 673 675 678 679 683 688 690 693 700 703 707 711 715 732 738 735 738 742 747 752 760 767 772 777 786 791 797 802 810 817 825 832 837 844 851 859 866 870 877 885 893 901 907 916 924 930 937 941 950 963 979 994 1010 1028 1032 1029 1033 1035 1040 1046 1051 1059 1071
454 454 453 452 456 456 454 456 457 456 454 450 449 450 451 450 449 449 449 448 450 451 451 451 451 452 452 451 451 453 453 453 455 455 454 456 456 456 456 454 455 455 456 456 457 456 458 458 458 458 459 459 458 459 460 459 459 459 462 460 462 460 462 463 464 464 465 465 466 466 467 469 470 470 472 473 473 472 473 477 478 476 476 476 476 478 480 480 481 482 484 483 483 483 483 485 486 487 486 486 488 489 490 488 489 491 491 493 495 493 494 494 493 494 496 495 496 498 500 502 504 503 505 506 507 509 509 511 512 512 513 512 511 511 512 513 514 515 516 517 520 519 520 520 518 518 519 519 517 513 517 521 518 515 527 517 516 520 521 519 521 522 523 518 524 525 526 527 527 526 527 529 529 530 529 532 532 533 535 533 533 535 536 537 537 537 538 539 540 540 540 541 540 542 543 543 544 545 543 543 546 548 551 550 548 550 551 549 549 551 552 553 552 553 555 555 555 555 556 556 557 558 561 562 561 559 559 561 561 560 561 562 562 562 563 564 566 565 565 565 566 566 567 567 567 566 568 569 570 570 571 570 569 571 573 573 574 574 574 576 578 578 575 575 575 576 580 578 579 576 578 581 578 578 577 579 581 580 579 579 582 583 582 582 583 582 584 588 587 586 588 588 589 591 592 593 595 597 599 602 601 600 601 606 609 608 610 617 618 618 615 617 621 622 623 626 626 629 632 635 637 639 642 644 646 648 651 656 659 662 663 665 668 669 673 678 681 685 689 691 696 703 714 717 719 723 731 737 735 738 743 749 754 761 768 773 779 785 794 799 805 811 818 824 830 836 844 850 859 866 874 878 886 894 899 908 916 924 932 941 946 956 965 977 984 990 999 1008 1014 1019 1030 1046 1056 1064 1071 1078
454 453 451 452 454 453 453 455 456 456 453 447 447 449 449 448 448 449 449 447 448 450 452 452 451 451 452 451 450 453 453 453 454 454 453 454 455 454 453 454 454 455 457 455 456 457 455 458 458 457 459 459 458 460 462 461 461 460 462 461 462 462 465 465 467 464 464 465 467 468 470 470 469 471 472 472 473 473 474 477 477 477 477 478 479 480 482 483 487 488 486 484 485 485 485 485 485 484 486 488 489 490 489 491 491 491 493 495 497 496 495 493 495 494 495 497 497 499 502 504 507 504 505 505 507 507 509 512 511 513 513 514 516 514 513 513 512 514 515 519 519 519 521 521 519 519 520 522 521 517 512 517 516 514 512 517 519 519 520 518 521 521 523 524 523 524 527 526 528 528 528 530 530 532 532 532 533 532 533 532 532 534 537 540 540 539 539 541 541 541 541 541 541 541 543 544 546 546 546 546 547 548 548 547 548 549 550 551 552 552 552 553 552 553 556 555 554 556 556 557 557 559 560 560 559 560 560 561 562 563 564 562 561 562 562 564 565 565 565 567 567 569 570 569 567 566 568 570 570 571 571 571 570 571 575 573 575 574 574 578 579 577 577 577 577 577 578 577 578 577 579 579 579 580 580 581 581 582 581 579 582 583 583 585 585 584 585 590 592 589 588 588 589 590 593 594 594 594 598 599 599 601 604 606 606 609 613 617 617 616 616 618 621 622 624 626 629 630 633 634 637 638 642 645 648 650 653 656 658 660 662 665 670 672 676 680 684 685 690 692 694 701 706 715 718 723 728 732 733 739 744 751 759 763 770 776 780 787 794 799 807 815 821 826 831 840 847 854 860 866 873 881 889 895 901 908 918 925 934 943 950 957 966 978 982 994 1006 1013 1025 1050 1073 1080 1093 1104 1105 1099
453 452 454 454 454 454 454 453 453 453 452 450 449 451 450 448 447 448 449 449 449 449 450 451 452 451 452 453 452 453 452 453 454 453 455 453 454 455 457 454 454 455 455 456 456 457 457 457 458 456 457 458 459 461 459 458 459 459 462 463 461 461 463 463 464 464 466 467 468 469 470 469 468 471 473 476 475 473 475 475 476 477 477 479 481 486 486 489 492 493 489 487 488 490 490 489 487 487 487 488 488 490 492 492 490 491 493 494 495 495 495 494 494 494 496 499 498 500 501 502 506 508 508 507 509 509 512 513 511 512 512 514 514 515 515 518 515 516 517 519 519 518 520 520 521 520 520 522 522 518 514 518 523 520 516 518 520 521 521 519 520 520 523 525 527 524 524 527 528 527 530 531 529 530 533 533 534 533 533 533 534 534 535 538 538 539 539 541 541 540 542 543 542 539 544 545 547 546 548 549 550 552 549 548 548 550 552 550 551 551 552 554 553 554 555 556 555 556 555 558 558 558 559 559 559 561 561 561 561 564 564 563 563 564 564 564 566 566 566 566 569 568 569 569 567 568 570 571 571 571 571 573 573 574 575 574 574 574 574 578 576 577 577 579 578 579 578 578 580 582 582 581 581 585 587 584 581 582 582 582 581 583 584 585 586 585 586 592 591 588 588 587 589 590 593 594 594 595 597 600 601 601 602 604 606 606 610 615 617 617 618 621 621 624 624 627 628 632 633 635 636 639 642 644 647 649 653 655 656 659 661 664 667 669 674 678 684 686 689 694 698 703 707 714 719 721 725 730 733 738 746 752 758 764 769 776 781 786 792 801 807 812 822 828 833 841 848 855 860 867 874 882 890 898 904 910 917 925 929 933 946 955 958 968 977 983 994 1017 1044 1085 1122 1137 1143 1159 1157 1147
452 452 453 454 452 453 452 453 453 451 451 450 450 451 447 447 447 446 448 448 449 450 451 450 451 451 453 452 450 452 451 452 451 452 453 454 453 454 455 455 454 454 456 456 456 456 454 456 458 457 458 458 458 460 460 457 458 459 463 465 460 460 462 461 462 463 464 466 466 471 473 469 469 472 474 478 479 480 478 477 477 480 481 483 487 489 488 491 494 496 492 491 491 493 494 492 490 490 490 490 488 489 492 491 491 491 492 493 493 493 496 498 496 496 497 496 496 500 499 502 505 506 508 506 508 509 511 512 512 512 513 513 513 515 515 516 515 517 518 520 522 518 522 522 523 522 520 521 519 518 516 520 521 519 517 517 521 520 520 521 522 523 524 525 528 527 528 527 529 530 530 531 529 530 532 533 534 534 534 534 536 537 539 538 539 540 539 542 542 542 544 543 542 542 544 545 547 548 547 548 548 549 548 548 549 551 552 552 550 552 553 554 553 556 556 557 556 557 555 558 559 558 560 559 560 562 564 562 563 564 565 565 563 562 565 566 567 568 568 567 570 569 569 569 570 571 569 569 570 572 572 572 574 576 575 575 575 575 576 579 579 578 579 580 580 580 578 580 579 581 581 583 582 581 579 579 582 584 582 581 582 583 585 586 586 586 588 589 589 590 591 591 591 593 593 595 595 597 598 600 602 602 601 605 607 607 610 611 613 614 617 619 619 623 624 626 627 630 633 634 637 639 642 644 647 651 653 654 656 659 661 665 669 672 675 679 684 686 689 692 699 702 706 710 717 721 725 730 736 739 747 752 758 763 769 774 780 786 791 798 804 812 820 825 832 839 846 854 860 867 875 881 887 893 901 907 913 916 919 929 942 948 954 962 969 983 998 1027 1071 1118 1163 1189 1200 1211 1208 1191
452 452 452 452 453 451 452 452 451 450 449 448 449 450 448 447 447 447 448 448 448 450 452 450 449 451 452 453 451 453 452 451 453 454 453 453 452 454 454 455 454 454 455 455 453 454 455 456 457 457 458 459 459 460 461 462 461 460 460 461 464 464 464 460 463 463 464 466 466 470 472 470 470 475 477 482 485 486 482 483 483 484 487 488 490 489 490 492 493 492 492 494 494 494 494 494 492 493 493 493 492 490 490 491 491 492 493 494 494 493 495 497 497 495 497 499 498 497 497 498 500 502 504 504 506 507 509 511 512 513 514 513 514 514 515 517 516 515 515 517 519 520 521 522 521 522 522 520 519 520 518 520 518 519 519 518 521 521 520 523 522 525 528 525 526 528 528 528 529 530 531 529 529 531 532 534 534 535 536 535 537 540 540 539 540 540 540 541 542 543 545 545 544 544 545 546 548 549 549 549 547 548 549 550 551 552 552 557 555 554 555 553 555 558 557 557 557 558 557 557 558 560 562 560 561 563 562 563 565 564 565 565 564 565 567 566 568 568 568 567 568 568 569 570 571 571 570 570 571 572 572 572 573 574 574 575 577 576 577 578 579 579 579 582 583 583 581 580 580 581 582 582 584 583 584 583 583 584 584 584 584 586 585 584 584 586 589 587 590 590 591 590 590 593 593 596 596 597 599 599 602 601 603 607 607 606 610 611 613 615 616 618 620 621 624 626 629 630 635 634 637 639 642 644 647 651 652 656 657 660 663 665 670 673 675 681 684 687 689 694 698 701 705 708 715 720 727 730 735 738 745 750 756 763 769 775 781 786 791 796 804 811 817 823 831 838 844 850 859 865 870 878 884 890 896 903 905 909 915 922 934 942 952 963 976 989 1010 1040 1081 1135 1188 1225 1251 1261 1256 1240
451 450 451 451 452 451 451 450 449 451 450 448 445 448 449 448 447 446 448 447 448 448 450 450 450 449 451 452 453 453 452 451 454 453 453 453 455 456 454 454 456 453 455 454 453 455 457 457 457 457 458 461 461 460 460 460 461 460 459 460 463 463 463 463 465 464 468 466 466 468 470 470 474 479 485 487 490 489 487 491 491 489 489 491 491 489 490 493 493 490 492 494 495 496 495 494 493 494 495 494 494 493 493 492 492 492 492 493 495 494 492 495 496 495 495 498 500 501 501 503 502 503 506 505 505 504 508 509 509 510 512 510 512 512 515 516 516 514 515 516 519 521 522 522 523 529 528 520 518 519 519 519 519 519 520 519 521 521 521 524 523 525 527 525 527 527 528 528 531 530 531 531 531 531 532 532 533 534 536 535 536 539 539 539 540 540 540 541 542 544 545 546 545 546 546 549 550 549 549 549 550 551 551 551 554 553 553 554 553 553 557 555 555 556 557 556 559 559 559 558 558 560 561 562 562 563 563 564 564 565 565 565 566 568 568 569 570 568 568 569 568 568 569 570 572 571 572 573 572 574 575 575 574 574 574 577 577 577 578 578 579 580 580 582 581 582 583 581 581 582 582 585 588 585 582 585 583 583 585 585 585 585 587 587 585 588 587 588 590 591 590 591 592 593 594 595 596 598 599 599 601 602 604 606 607 607 609 610 613 614 616 617 620 621 624 626 628 632 636 636 638 639 642 645 648 649 652 657 658 660 664 666 669 673 678 683 685 687 691 695 699 704 708 714 719 723 728 729 734 738 743 748 754 761 766 772 777 785 791 796 803 809 817 824 828 835 842 848 853 860 867 874 881 886 891 894 899 905 905 910 921 935 950 964 981 999 1018 1053 1093 1136 1187 1236 1276 1298 1296 1284
